# .PCD v0.7 - Point Cloud Data file format
VERSION 0.7
FIELDS x y z
SIZE 4 4 4
TYPE F F F
COUNT 1 1 1
WIDTH 1730
HEIGHT 1
VIEWPOINT 0 0 0 1 0 0 0
POINTS 1730
DATA ascii
4.189880 -0.497132 1.002514
4.189882 -0.504476 1.002560
4.194234 -0.512059 1.002807
4.199675 -0.519718 1.003104
4.206202 -0.527459 1.003451
4.213818 -0.535287 1.003849
4.219258 -0.543007 1.004146
4.227961 -0.550952 1.004594
4.234489 -0.558786 1.004942
4.242104 -0.566714 1.005340
4.247544 -0.574520 1.005638
4.251897 -0.582267 1.005885
4.256249 -0.590029 1.006133
4.262777 -0.597966 1.006482
4.264954 -0.605598 1.006629
4.264956 -0.613069 1.006676
4.269309 -0.620883 1.006924
4.273662 -0.628712 1.007173
4.275839 -0.636377 1.007320
4.286717 -0.644779 1.007871
4.292157 -0.652753 1.008170
4.309562 -0.661789 1.009022
4.322616 -0.670497 1.009674
4.326968 -0.678461 1.009923
4.321532 -0.685536 1.009719
4.323709 -0.693308 1.009867
4.326974 -0.701192 1.010066
4.362869 -0.712267 1.011777
4.392238 -0.722817 1.013186
4.441185 -0.735441 1.015504
4.338108 -1.735229 1.017082
4.303302 -1.731377 1.015467
4.282637 -1.732080 1.014526
4.265235 -1.733798 1.013741
4.244570 -1.734367 1.012800
4.223905 -1.734865 1.011858
4.201065 -1.734559 1.010812
4.181487 -1.735282 1.009922
4.160822 -1.735567 1.008978
4.140157 -1.735782 1.008035
4.121667 -1.736676 1.007195
4.102089 -1.737130 1.006303
4.083600 -1.737896 1.005462
4.064022 -1.738219 1.004569
4.045533 -1.738857 1.003728
4.027043 -1.739432 1.002886
4.009641 -1.740330 1.002096
3.991151 -1.740781 1.001254
3.973749 -1.741559 1.000463
3.955259 -1.741886 0.999619
3.938944 -1.742936 0.998880
3.921542 -1.743535 0.998088
3.905228 -1.744472 0.997348
3.888913 -1.745354 0.996608
3.872599 -1.746180 0.995867
3.857372 -1.747353 0.995178
3.841058 -1.748069 0.994437
3.825831 -1.749137 0.993747
3.810604 -1.750152 0.993057
3.797553 -1.751935 0.992472
3.785589 -1.754084 0.991938
3.779064 -1.758260 0.991666
3.774715 -1.763243 0.991499
3.773629 -1.769463 0.991488
3.773631 -1.776098 0.991530
3.773632 -1.782732 0.991572
3.771459 -1.788522 0.991509
3.771460 -1.795153 0.991551
3.770374 -1.801358 0.991540
3.770376 -1.807987 0.991582
3.770377 -1.814616 0.991624
3.769291 -1.820814 0.991613
3.769293 -1.827441 0.991655
3.769294 -1.834068 0.991697
3.769296 -1.840696 0.991739
3.769298 -1.847323 0.991780
3.768212 -1.853509 0.991770
3.767126 -1.859692 0.991759
3.767127 -1.866316 0.991801
3.766041 -1.872493 0.991790
3.766043 -1.879115 0.991832
3.766044 -1.885736 0.991873
3.766046 -1.892358 0.991915
3.766048 -1.898980 0.991957
3.767137 -1.906058 0.992051
3.767139 -1.912681 0.992093
3.767141 -1.919305 0.992135
3.767142 -1.925929 0.992176
3.767144 -1.932552 0.992218
3.767146 -1.939176 0.992260
3.767147 -1.945800 0.992302
3.767149 -1.952423 0.992343
3.768238 -1.959518 0.992438
3.767152 -1.965671 0.992427
3.768241 -1.972769 0.992521
3.768243 -1.979394 0.992563
3.767157 -1.985542 0.992552
3.768246 -1.992645 0.992647
3.768248 -1.999271 0.992688
3.768250 -2.005896 0.992730
3.769339 -2.013007 0.992825
3.769341 -2.019635 0.992867
3.769342 -2.026262 0.992908
3.769344 -2.032889 0.992950
3.770434 -2.040010 0.993045
3.770435 -2.046639 0.993087
3.771525 -2.053765 0.993181
3.771526 -2.060396 0.993223
3.771528 -2.067027 0.993265
3.772617 -2.074160 0.993360
3.772619 -2.080793 0.993401
3.772621 -2.087426 0.993443
3.773710 -2.094567 0.993538
3.774799 -2.101711 0.993633
3.774801 -2.108348 0.993675
3.774803 -2.114984 0.993716
3.775892 -2.122136 0.993811
3.776981 -2.129291 0.993906
3.776983 -2.135932 0.993948
3.778073 -2.143093 0.994043
3.778074 -2.149735 0.994085
3.778076 -2.156377 0.994126
3.779165 -2.163545 0.994221
3.780255 -2.170718 0.994316
3.781344 -2.177893 0.994411
3.781346 -2.184541 0.994453
3.782435 -2.191722 0.994548
3.782437 -2.198372 0.994590
3.783526 -2.205559 0.994685
3.783528 -2.212210 0.994727
3.784618 -2.219403 0.994822
3.785707 -2.226599 0.994917
3.785709 -2.233254 0.994959
3.785710 -2.239909 0.995001
3.785712 -2.246564 0.995043
3.786801 -2.253770 0.995138
3.787891 -2.260979 0.995233
3.787892 -2.267638 0.995275
3.788982 -2.274852 0.995371
3.790071 -2.282071 0.995466
3.791161 -2.289293 0.995561
3.792250 -2.296519 0.995656
3.793340 -2.303748 0.995752
3.793341 -2.310416 0.995794
3.795519 -2.318218 0.995942
3.797696 -2.326028 0.996091
3.803136 -2.335556 0.996400
3.803138 -2.342241 0.996442
3.809667 -2.352372 0.996804
3.816195 -2.362525 0.997167
3.836864 -2.380215 0.998223
3.855358 -2.396815 0.999173
3.289930 -2.984347 0.977017
3.277965 -2.980643 0.976447
3.269263 -2.979499 0.976042
3.262738 -2.980062 0.975747
3.257300 -2.981474 0.975507
3.254038 -2.984613 0.975378
3.248600 -2.985991 0.975138
3.243162 -2.987351 0.974898
3.238812 -2.989571 0.974713
3.234462 -2.991776 0.974528
3.230112 -2.993966 0.974343
3.224674 -2.995257 0.974102
3.220324 -2.997416 0.973917
3.218150 -3.001334 0.973842
3.215975 -3.005245 0.973768
3.202922 -3.000239 0.973139
3.135476 -2.950551 0.969743
4.452622 3.426756 0.982666
4.463492 3.427729 0.983140
4.470015 3.425164 0.983444
4.475450 3.421703 0.983706
4.478713 3.416482 0.983883
4.481975 3.411249 0.984060
4.486324 3.406872 0.984279
4.491760 3.403347 0.984542
4.496109 3.398939 0.984761
4.501545 3.395379 0.985024
4.509154 3.393520 0.985371
4.513503 3.389061 0.985592
4.522199 3.388013 0.985982
4.529809 3.386081 0.986330
4.535245 3.382417 0.986593
4.541767 3.379585 0.986899
4.548290 3.376731 0.987205
4.554813 3.373855 0.987511
4.563509 3.372648 0.987903
4.567858 3.368036 0.988124
4.574380 3.365094 0.988431
4.580903 3.362129 0.988737
4.586339 3.358304 0.989001
4.590689 3.353624 0.989223
4.597211 3.350598 0.989530
4.604821 3.348383 0.989880
4.612430 3.346141 0.990230
4.618952 3.343045 0.990537
4.624388 3.339099 0.990802
4.633085 3.337611 0.991196
4.645041 3.338562 0.991718
4.650478 3.334545 0.991983
4.663521 3.336246 0.992548
4.646134 3.315005 0.991914
4.540718 3.227736 0.987809
4.534200 3.214904 0.987601
4.536375 3.208592 0.987737
4.538550 3.202273 0.987873
4.541813 3.196755 0.988052
4.543988 3.190419 0.988188
4.546164 3.184076 0.988324
4.547252 3.176922 0.988417
4.549428 3.170566 0.988553
4.550517 3.163403 0.988646
4.551606 3.156236 0.988739
4.552694 3.149066 0.988832
4.553783 3.141892 0.988926
4.555959 3.135507 0.989062
4.557048 3.128323 0.989155
4.558136 3.121136 0.989249
4.559225 3.113946 0.989342
4.560314 3.106751 0.989435
4.562490 3.100336 0.989572
4.563579 3.093132 0.989665
4.564667 3.085925 0.989758
4.565756 3.078714 0.989852
4.567931 3.072274 0.989989
4.569020 3.065054 0.990082
4.571196 3.058602 0.990219
4.572285 3.051372 0.990312
4.574460 3.044907 0.990449
4.576636 3.038434 0.990586
4.577725 3.031190 0.990680
4.579900 3.024704 0.990816
4.582076 3.018211 0.990953
4.584252 3.011710 0.991090
4.585340 3.004446 0.991184
4.587516 2.997932 0.991321
4.589691 2.991411 0.991458
4.591867 2.984883 0.991595
4.594043 2.978347 0.991733
4.596218 2.971804 0.991870
4.598394 2.965253 0.992007
4.601656 2.959439 0.992188
4.603832 2.952871 0.992325
4.607094 2.947037 0.992506
4.609270 2.940453 0.992643
4.612533 2.934598 0.992824
4.615795 2.928732 0.993005
4.619057 2.922855 0.993186
4.621233 2.916236 0.993324
4.624495 2.910338 0.993505
4.627758 2.904430 0.993687
4.631020 2.898510 0.993868
4.634283 2.892579 0.994049
4.636458 2.885915 0.994187
4.639721 2.879964 0.994369
4.642983 2.874002 0.994550
4.646246 2.868028 0.994732
4.648422 2.861330 0.994870
4.651684 2.855336 0.995052
4.654946 2.849330 0.995234
4.658209 2.843315 0.995416
4.662558 2.837994 0.995641
4.669081 2.834068 0.995954
4.677778 2.831527 0.996354
4.688648 2.830357 0.996841
4.700605 2.829850 0.997373
4.712562 2.829303 0.997904
4.726693 2.830106 0.998523
4.742997 2.832248 0.999229
4.759301 2.834334 0.999936
4.775605 2.836365 1.000643
4.792997 2.839029 1.001394
4.811474 2.842319 1.002190
4.829953 2.845547 1.002985
4.847344 2.848029 1.003738
4.865822 2.851133 1.004534
4.887560 2.856211 1.005462
4.909299 2.861214 1.006390
4.934298 2.868169 1.007450
4.962558 2.877059 1.008642
4.991904 2.886525 1.009879
5.014730 2.891872 1.010853
5.037555 2.897141 1.011828
5.058207 2.901001 1.012715
5.077772 2.904127 1.013559
5.097337 2.907186 1.014404
5.116902 2.910178 1.015249
5.138641 2.914420 1.016182
5.161466 2.919246 1.017160
5.182118 2.922684 1.018050
5.206031 2.928010 1.019073
5.232117 2.934557 1.020183
5.263637 2.944263 1.021514
5.294071 2.953213 1.022802
5.308944 -0.027493 1.042216
5.307859 -0.036795 1.042227
5.308948 -0.046002 1.042333
5.305689 -0.055388 1.042248
5.294822 -0.065058 1.041829
5.282867 -0.074731 1.041362
5.268739 -0.084440 1.040799
5.255697 -0.094064 1.040284
5.244830 -0.103574 1.039864
5.228528 -0.113212 1.039205
5.214399 -0.122732 1.038641
5.197010 -0.132292 1.037933
5.182881 -0.141710 1.037368
5.172014 -0.151004 1.036947
5.167668 -0.160119 1.036812
5.166583 -0.169154 1.036821
5.173107 -0.178047 1.037165
5.151370 -0.187430 1.036265
4.514402 -0.221700 1.008354
4.308963 -0.231609 0.999345
4.265486 -0.239512 0.997475
4.252444 -0.247072 0.996947
4.243750 -0.254567 0.996610
4.238316 -0.262023 0.996417
4.231796 -0.269462 0.996176
4.228537 -0.276881 0.996079
4.228539 -0.284295 0.996125
4.231802 -0.291721 0.996316
4.236152 -0.299165 0.996555
4.230719 -0.306553 0.996362
4.226372 -0.313932 0.996216
4.220939 -0.321284 0.996023
4.215506 -0.328618 0.995829
4.206812 -0.335888 0.995491
4.201379 -0.343179 0.995297
4.198120 -0.350490 0.995199
4.199209 -0.357873 0.995293
4.203559 -0.365328 0.995532
4.213343 -0.372921 0.996012
4.226389 -0.380626 0.996637
4.235087 -0.388262 0.997069
4.235089 -0.395687 0.997116
4.234004 -0.403081 0.997114
4.236180 -0.410572 0.997257
4.242703 -0.418213 0.997594
4.247053 -0.425801 0.997833
4.250316 -0.433365 0.998025
4.247057 -0.440692 0.997927
4.231841 -0.447535 0.997298
4.214451 -0.454236 0.996573
4.201408 -0.461065 0.996040
4.193801 -0.468093 0.995748
4.188368 -0.475195 0.995553
4.186196 -0.482436 0.995503
4.185111 -0.489724 0.995500
4.184025 -0.497008 0.995498
4.184027 -0.504346 0.995545
4.188377 -0.511923 0.995784
4.191640 -0.519454 0.995976
4.199251 -0.527249 0.996361
4.205775 -0.535005 0.996698
4.212299 -0.542783 0.997035
4.220996 -0.550721 0.997469
4.227521 -0.558547 0.997806
4.231870 -0.566250 0.998047
4.236220 -0.573968 0.998287
4.242744 -0.581853 0.998625
4.250355 -0.589839 0.999011
4.261227 -0.598091 0.999543
4.264490 -0.605807 0.999736
4.264492 -0.613282 0.999783
4.265581 -0.620843 0.999879
4.264496 -0.628232 0.999877
4.272106 -0.636333 1.000264
4.289500 -0.645280 1.001089
4.273197 -0.651402 1.000407
4.564519 -0.684324 1.013478
4.689527 -0.703435 1.019119
4.336513 -1.735631 1.010026
4.302815 -1.732137 1.008516
4.279988 -1.732125 1.007508
4.262596 -1.733843 1.006751
4.240857 -1.734048 1.005793
4.220204 -1.734544 1.004884
4.198464 -1.734603 1.003924
4.177812 -1.734957 1.003014
4.158246 -1.735611 1.002155
4.138680 -1.736198 1.001294
4.119115 -1.736719 1.000434
4.100636 -1.737550 0.999623
4.082157 -1.738317 0.998812
4.062592 -1.738642 0.997950
4.044113 -1.739282 0.997138
4.025634 -1.739858 0.996326
4.007156 -1.740372 0.995513
3.989764 -1.741211 0.994750
3.971285 -1.741600 0.993937
3.952806 -1.741927 0.993123
3.935415 -1.742584 0.992359
3.919110 -1.743577 0.991645
3.903893 -1.744910 0.990982
3.886501 -1.745395 0.990217
3.871283 -1.746621 0.989553
3.856066 -1.747795 0.988888
3.839761 -1.748514 0.988173
3.824543 -1.749583 0.987507
3.809326 -1.750600 0.986842
3.795195 -1.751975 0.986227
3.785413 -1.754947 0.985813
3.778892 -1.759126 0.985552
3.774545 -1.764113 0.985391
3.774547 -1.770753 0.985433
3.774549 -1.777394 0.985475
3.773463 -1.783613 0.985466
3.772378 -1.789829 0.985457
3.772380 -1.796466 0.985499
3.771294 -1.802676 0.985490
3.770209 -1.808883 0.985481
3.770210 -1.815516 0.985523
3.769125 -1.821717 0.985514
3.770214 -1.828782 0.985607
3.770215 -1.835415 0.985649
3.770217 -1.842048 0.985690
3.770219 -1.848680 0.985732
3.769133 -1.854872 0.985723
3.768048 -1.861061 0.985714
3.766962 -1.867245 0.985705
3.766964 -1.873872 0.985747
3.766966 -1.880500 0.985789
3.766967 -1.887127 0.985831
3.768056 -1.894207 0.985923
3.766970 -1.900382 0.985914
3.768059 -1.907465 0.986007
3.766974 -1.913637 0.985998
3.768063 -1.920724 0.986090
3.768064 -1.927353 0.986132
3.768066 -1.933982 0.986174
3.768068 -1.940611 0.986216
3.768069 -1.947240 0.986258
3.768071 -1.953870 0.986299
3.769160 -1.960970 0.986392
3.768074 -1.967128 0.986383
3.768076 -1.973757 0.986425
3.769165 -1.980863 0.986518
3.769166 -1.987494 0.986559
3.769168 -1.994125 0.986601
3.769170 -2.000756 0.986643
3.769171 -2.007387 0.986685
3.770260 -2.014504 0.986778
3.770262 -2.021136 0.986819
3.770263 -2.027769 0.986861
3.771352 -2.034893 0.986954
3.771354 -2.041528 0.986996
3.771355 -2.048163 0.987038
3.771357 -2.054798 0.987080
3.772446 -2.061931 0.987173
3.772447 -2.068568 0.987214
3.772449 -2.075204 0.987256
3.773538 -2.082345 0.987349
3.773539 -2.088983 0.987391
3.774628 -2.096129 0.987484
3.775717 -2.103279 0.987577
3.775719 -2.109922 0.987619
3.775720 -2.116564 0.987661
3.776809 -2.123721 0.987754
3.776811 -2.130365 0.987796
3.777899 -2.137528 0.987889
3.777901 -2.144174 0.987931
3.778990 -2.151342 0.988024
3.778992 -2.157990 0.988066
3.780080 -2.165164 0.988159
3.780082 -2.171813 0.988201
3.781171 -2.178993 0.988295
3.782260 -2.186176 0.988388
3.783348 -2.193363 0.988481
3.783350 -2.200018 0.988523
3.784439 -2.207211 0.988616
3.784440 -2.213868 0.988658
3.785529 -2.221066 0.988752
3.785531 -2.227725 0.988794
3.785532 -2.234383 0.988836
3.786621 -2.241589 0.988929
3.787710 -2.248798 0.989023
3.787712 -2.255461 0.989065
3.788800 -2.262675 0.989158
3.788802 -2.269340 0.989200
3.789891 -2.276560 0.989294
3.790980 -2.283784 0.989387
3.792068 -2.291011 0.989481
3.793157 -2.298243 0.989574
3.794246 -2.305478 0.989668
3.795335 -2.312717 0.989762
3.797511 -2.320526 0.989907
3.800774 -2.328912 0.990104
3.806211 -2.338450 0.990404
3.810561 -2.347434 0.990652
3.815999 -2.357007 0.990953
3.820349 -2.366022 0.991202
3.848616 -2.387770 0.992587
3.272655 -2.966512 0.970796
3.273744 -2.973161 0.970886
3.275920 -2.980678 0.971030
3.269398 -2.981267 0.970745
3.261789 -2.980966 0.970407
3.256354 -2.982379 0.970176
3.253094 -2.985520 0.970052
3.248747 -2.987774 0.969874
3.243312 -2.989138 0.969643
3.238965 -2.991361 0.969465
3.235705 -2.994450 0.969340
3.231357 -2.996645 0.969162
3.225923 -2.997942 0.968931
3.220488 -2.999221 0.968699
3.220489 -3.004917 0.968734
3.223752 -3.013280 0.968931
3.211795 -3.009182 0.968377
4.454213 3.430225 0.975534
4.463990 3.430313 0.975950
4.470509 3.427743 0.976244
4.475941 3.424277 0.976497
4.480287 3.419920 0.976709
4.483548 3.414680 0.976881
4.487895 3.410296 0.977094
4.493327 3.406763 0.977348
4.497674 3.402348 0.977560
4.503106 3.398780 0.977814
4.509625 3.396054 0.978109
4.515057 3.392447 0.978363
4.523748 3.391392 0.978740
4.531353 3.389452 0.979076
4.535699 3.384928 0.979290
4.542218 3.382090 0.979585
4.548737 3.379231 0.979881
4.555256 3.376350 0.980176
4.563947 3.375137 0.980554
4.568293 3.370520 0.980768
4.574812 3.367572 0.981065
4.581331 3.364601 0.981361
4.585677 3.359932 0.981575
4.591110 3.356085 0.981831
4.596543 3.352219 0.982087
4.603062 3.349167 0.982383
4.611752 3.347754 0.982763
4.618271 3.344654 0.983060
4.624790 3.341532 0.983357
4.632395 3.339213 0.983695
4.642172 3.338514 0.984116
4.650863 3.336960 0.984496
4.658468 3.334558 0.984835
4.679107 3.341942 0.985668
4.550945 3.237478 0.980867
4.533569 3.216484 0.980259
4.536829 3.210981 0.980432
4.539004 3.204656 0.980565
4.541178 3.198324 0.980697
4.543352 3.191984 0.980830
4.545526 3.185638 0.980962
4.546614 3.178480 0.981054
4.548789 3.172120 0.981186
4.550963 3.165753 0.981319
4.552051 3.158581 0.981410
4.553139 3.151405 0.981502
4.554227 3.144226 0.981593
4.555315 3.137042 0.981685
4.557489 3.130645 0.981818
4.558578 3.123453 0.981909
4.559666 3.116257 0.982001
4.560754 3.109057 0.982093
4.561842 3.101853 0.982184
4.562930 3.094646 0.982276
4.564018 3.087435 0.982368
4.566192 3.080997 0.982501
4.567281 3.073777 0.982593
4.569455 3.067326 0.982726
4.570543 3.060097 0.982818
4.572717 3.053633 0.982951
4.574892 3.047162 0.983084
4.577066 3.040684 0.983218
4.578154 3.033434 0.983310
4.580328 3.026942 0.983443
4.581417 3.019684 0.983535
4.583591 3.013179 0.983669
4.585765 3.006667 0.983802
4.587940 3.000149 0.983936
4.589028 2.992869 0.984028
4.591202 2.986337 0.984162
4.593376 2.979797 0.984296
4.596637 2.973998 0.984471
4.598811 2.967442 0.984605
4.600985 2.960878 0.984739
4.603160 2.954307 0.984873
4.606420 2.948469 0.985048
4.609681 2.942619 0.985224
4.612941 2.936759 0.985400
4.615115 2.930152 0.985534
4.619462 2.925004 0.985751
4.621636 2.918379 0.985886
4.624897 2.912476 0.986062
4.628157 2.906562 0.986238
4.631418 2.900637 0.986414
4.633592 2.893977 0.986548
4.636852 2.888031 0.986725
4.639027 2.881355 0.986859
4.642287 2.875388 0.987036
4.645548 2.869411 0.987212
4.647722 2.862709 0.987347
4.650983 2.856711 0.987524
4.654243 2.850703 0.987700
4.658590 2.845391 0.987919
4.661850 2.839359 0.988096
4.668370 2.835429 0.988398
4.677061 2.832884 0.988784
4.686838 2.831009 0.989212
4.697702 2.829801 0.989683
4.710738 2.829951 0.990237
4.724860 2.830752 0.990833
4.740069 2.832198 0.991472
4.756363 2.834284 0.992153
4.773744 2.837005 0.992876
4.791124 2.839667 0.993599
4.809592 2.842956 0.994365
4.828058 2.846181 0.995131
4.845439 2.848661 0.995856
4.863906 2.851763 0.996623
4.884545 2.856160 0.997474
4.906271 2.861163 0.998368
4.931255 2.868118 0.999388
4.958411 2.876334 1.000493
4.988826 2.886472 1.001725
5.011638 2.891820 1.002663
5.034449 2.897089 1.003601
5.055089 2.900949 1.004456
5.074642 2.904074 1.005269
5.095282 2.907795 1.006124
5.113749 2.910124 1.006896
5.134388 2.913708 1.007753
5.157200 2.918535 1.008694
5.177840 2.921975 1.009551
5.200651 2.926650 1.010493
5.226722 2.933201 1.011562
5.257137 2.942260 1.012801
5.286466 2.950568 1.013997
5.298083 -0.074102 1.033528
5.280703 -0.083957 1.032850
5.265497 -0.093680 1.032263
5.255723 -0.103178 1.031907
5.242689 -0.112741 1.031412
5.232915 -0.122167 1.031055
5.218794 -0.131676 1.030513
5.206847 -0.141082 1.030064
5.195986 -0.150422 1.029660
5.185125 -0.159725 1.029256
5.173177 -0.169013 1.028806
5.177525 -0.177962 1.029047
5.189477 -0.186799 1.029612
5.194911 -0.195775 1.029900
5.193827 -0.204854 1.029911
5.020016 -0.215913 1.022578
4.408437 -0.331084 0.997256
4.406280 -0.392828 0.997553
4.359578 -0.437464 0.995845
4.348717 -0.444694 0.995428
4.333510 -0.451714 0.994824
4.313957 -0.458503 0.994034
4.288973 -0.464991 0.993011
4.256385 -0.471054 0.991661
4.227055 -0.477157 0.990451
4.211848 -0.483841 0.989845
4.204245 -0.490851 0.989565
4.199902 -0.498004 0.989425
4.199904 -0.505374 0.989472
4.200992 -0.512804 0.989565
4.202080 -0.520237 0.989658
4.207514 -0.527927 0.989938
4.215120 -0.535767 0.990311
4.221640 -0.543565 0.990638
4.228160 -0.551386 0.990965
4.233594 -0.559158 0.991245
4.236854 -0.566803 0.991432
4.244461 -0.574758 0.991806
4.248808 -0.582509 0.992040
4.256414 -0.590510 0.992414
4.268366 -0.598857 0.992976
4.274886 -0.606835 0.993304
4.282493 -0.614919 0.993679
4.286840 -0.622772 0.993913
4.286842 -0.630289 0.993961
4.274894 -0.636824 0.993493
4.173864 -0.635840 0.989184
4.359901 -1.736576 1.004035
4.333829 -1.735676 1.002919
4.301238 -1.732540 1.001511
4.277339 -1.732170 1.000491
4.258871 -1.733526 0.999713
4.238231 -1.734093 0.998837
4.217591 -1.734589 0.997961
4.195864 -1.734647 0.997036
4.175224 -1.735001 0.996159
4.155670 -1.735655 0.995331
4.136116 -1.736242 0.994502
4.117649 -1.737137 0.993721
4.098095 -1.737593 0.992891
4.079627 -1.738360 0.992109
4.061160 -1.739064 0.991327
4.042692 -1.739706 0.990545
4.024225 -1.740284 0.989762
4.005757 -1.740800 0.988979
3.987289 -1.741253 0.988195
3.969908 -1.742031 0.987460
3.951441 -1.742360 0.986675
3.934059 -1.743019 0.985939
3.916678 -1.743618 0.985203
3.901470 -1.744951 0.984563
3.885175 -1.745834 0.983875
3.869967 -1.747062 0.983235
3.853672 -1.747836 0.982546
3.838463 -1.748958 0.981905
3.822168 -1.749623 0.981215
3.808046 -1.751048 0.980623
3.793924 -1.752424 0.980030
3.785234 -1.755810 0.979681
3.778717 -1.759992 0.979430
3.775460 -1.765398 0.979325
3.775461 -1.772044 0.979367
3.774377 -1.778271 0.979360
3.774378 -1.784915 0.979402
3.773294 -1.791137 0.979395
3.772209 -1.797354 0.979388
3.771124 -1.803569 0.979381
3.771126 -1.810207 0.979423
3.771127 -1.816846 0.979465
3.770042 -1.823052 0.979457
3.771130 -1.830122 0.979548
3.771132 -1.836761 0.979590
3.771134 -1.843399 0.979632
3.770049 -1.849599 0.979625
3.768964 -1.855794 0.979618
3.767879 -1.861986 0.979610
3.767881 -1.868619 0.979652
3.767883 -1.875252 0.979694
3.767884 -1.881885 0.979736
3.767886 -1.888518 0.979778
3.768974 -1.895603 0.979869
3.767889 -1.901784 0.979861
3.768978 -1.908872 0.979952
3.767893 -1.915049 0.979945
3.768981 -1.922142 0.980036
3.768983 -1.928777 0.980078
3.768984 -1.935412 0.980120
3.768986 -1.942046 0.980161
3.768987 -1.948681 0.980203
3.768989 -1.955316 0.980245
3.768991 -1.961951 0.980287
3.768992 -1.968585 0.980329
3.768994 -1.975220 0.980371
3.770082 -1.982331 0.980462
3.770084 -1.988968 0.980503
3.770085 -1.995604 0.980545
3.771173 -2.002723 0.980636
3.771175 -2.009361 0.980678
3.771177 -2.016000 0.980720
3.771178 -2.022638 0.980762
3.771180 -2.029277 0.980804
3.772268 -2.036406 0.980895
3.772270 -2.043047 0.980937
3.772271 -2.049687 0.980979
3.772273 -2.056327 0.981021
3.773361 -2.063466 0.981112
3.773363 -2.070108 0.981154
3.774451 -2.077253 0.981245
3.774453 -2.083897 0.981287
3.774454 -2.090541 0.981329
3.775542 -2.097692 0.981420
3.775544 -2.104338 0.981462
3.775546 -2.110984 0.981504
3.776634 -2.118143 0.981595
3.776636 -2.124791 0.981637
3.777724 -2.131956 0.981729
3.777725 -2.138605 0.981771
3.778813 -2.145776 0.981862
3.778815 -2.152427 0.981904
3.779903 -2.159603 0.981996
3.780991 -2.166782 0.982087
3.780993 -2.173438 0.982129
3.782081 -2.180623 0.982221
3.783169 -2.187811 0.982312
3.784257 -2.195004 0.982404
3.784259 -2.201665 0.982446
3.785347 -2.208863 0.982537
3.785349 -2.215525 0.982579
3.786437 -2.222729 0.982671
3.786439 -2.229393 0.982713
3.786440 -2.236057 0.982755
3.787529 -2.243269 0.982847
3.788617 -2.250483 0.982939
3.789705 -2.257702 0.983030
3.789706 -2.264372 0.983072
3.790795 -2.271596 0.983164
3.791883 -2.278823 0.983256
3.792971 -2.286055 0.983348
3.794059 -2.293290 0.983440
3.796233 -2.301090 0.983581
3.796235 -2.307771 0.983624
3.797323 -2.315017 0.983716
3.800584 -2.323401 0.983907
3.802759 -2.331227 0.984049
3.810366 -2.341914 0.984440
3.815800 -2.351482 0.984732
3.821234 -2.361068 0.985024
3.828841 -2.371825 0.985415
3.851659 -2.390701 0.986506
3.278218 -2.972576 0.965746
3.266268 -2.968879 0.965214
3.274961 -2.981577 0.965664
3.265184 -2.979568 0.965235
3.260839 -2.981869 0.965064
3.255408 -2.983284 0.964842
3.252150 -2.986426 0.964723
3.246718 -2.987808 0.964500
3.243460 -2.990924 0.964381
3.240202 -2.994029 0.964262
3.238030 -2.998003 0.964194
3.233685 -3.000206 0.964023
3.228254 -3.001510 0.963800
3.223909 -3.003682 0.963629
3.226084 -3.011162 0.963768
3.228258 -3.018649 0.963908
3.203269 -3.003870 0.962751
4.455798 3.433693 0.968388
4.465570 3.433774 0.968789
4.472085 3.431196 0.969072
4.476428 3.426849 0.969277
4.480772 3.422488 0.969483
4.484030 3.417242 0.969650
4.489460 3.413720 0.969895
4.493804 3.409314 0.970101
4.499233 3.405757 0.970346
4.504662 3.402182 0.970591
4.511177 3.399448 0.970875
4.516606 3.395834 0.971121
4.524206 3.393914 0.971445
4.531807 3.391969 0.971769
4.536151 3.387439 0.971975
4.542666 3.384596 0.972260
4.550266 3.382580 0.972585
4.555695 3.378844 0.972831
4.564381 3.377626 0.973195
4.568725 3.373003 0.973402
4.574154 3.369207 0.973649
4.580669 3.366233 0.973935
4.585013 3.361560 0.974142
4.590442 3.357709 0.974389
4.595872 3.353839 0.974636
4.603472 3.351616 0.974962
4.611072 3.349367 0.975288
4.617587 3.346263 0.975575
4.624102 3.343137 0.975862
4.630617 3.339989 0.976149
4.639303 3.338465 0.976515
4.650160 3.338555 0.976960
4.661016 3.338607 0.977405
4.682728 3.346800 0.978244
4.596977 3.274146 0.975183
4.540534 3.223763 0.973185
4.537280 3.213370 0.973117
4.538367 3.206229 0.973207
4.540540 3.199893 0.973336
4.542713 3.193550 0.973465
4.545971 3.188004 0.973633
4.547059 3.180841 0.973723
4.549232 3.174476 0.973852
4.550319 3.167304 0.973942
4.551407 3.160128 0.974032
4.552494 3.152948 0.974122
4.554667 3.146559 0.974251
4.555754 3.139370 0.974341
4.557928 3.132968 0.974470
4.559015 3.125770 0.974560
4.560103 3.118568 0.974650
4.561190 3.111362 0.974740
4.562277 3.104153 0.974830
4.563365 3.096940 0.974920
4.564453 3.089724 0.975010
4.565540 3.082503 0.975100
4.567713 3.076055 0.975230
4.568800 3.068825 0.975320
4.570974 3.062363 0.975450
4.573146 3.055894 0.975580
4.574234 3.048650 0.975670
4.576407 3.042168 0.975800
4.578580 3.035678 0.975930
4.579667 3.028419 0.976020
4.581840 3.021917 0.976150
4.584013 3.015407 0.976280
4.585101 3.008133 0.976370
4.587274 3.001610 0.976501
4.589447 2.995080 0.976631
4.591620 2.988542 0.976761
4.593793 2.981997 0.976892
4.595966 2.975444 0.977022
4.598139 2.968884 0.977152
4.600312 2.962317 0.977283
4.603570 2.956484 0.977453
4.606829 2.950641 0.977624
4.609002 2.944047 0.977754
4.612260 2.938183 0.977925
4.615519 2.932308 0.978095
4.618777 2.926421 0.978266
4.622036 2.920523 0.978437
4.625294 2.914614 0.978608
4.627467 2.907967 0.978739
4.630726 2.902039 0.978910
4.633984 2.896098 0.979081
4.637243 2.890147 0.979252
4.639416 2.883465 0.979383
4.642675 2.877493 0.979554
4.644848 2.870795 0.979686
4.647020 2.864088 0.979817
4.650279 2.858087 0.979988
4.653538 2.852075 0.980160
4.657882 2.846760 0.980372
4.662226 2.841430 0.980583
4.667655 2.836790 0.980835
4.676341 2.834240 0.981208
4.685028 2.831662 0.981580
4.695885 2.830451 0.982033
4.708913 2.830599 0.982567
4.723027 2.831398 0.983140
4.737140 2.832148 0.983715
4.753425 2.834234 0.984369
4.770795 2.836955 0.985065
4.789251 2.840305 0.985801
4.807707 2.843591 0.986537
4.826162 2.846815 0.987274
4.843533 2.849293 0.987971
4.861988 2.852393 0.988708
4.881530 2.856108 0.989487
4.903242 2.861111 0.990346
4.928212 2.868066 0.991326
4.954266 2.875609 0.992347
4.984662 2.885749 0.993530
5.009632 2.892437 0.994512
5.032429 2.897704 0.995414
5.051971 2.900896 0.996196
5.071513 2.904021 0.996978
5.092140 2.907742 0.997801
5.110596 2.910071 0.998543
5.130137 2.912996 0.999326
5.151850 2.917168 1.000190
5.173562 2.921266 1.001055
5.195275 2.925290 1.001921
5.220244 2.931192 1.002908
5.250641 2.940257 1.004098
5.278867 2.947923 1.005207
5.292650 -0.083475 1.024852
5.273110 -0.093370 1.024112
5.258999 -0.103025 1.023594
5.245973 -0.112599 1.023120
5.236204 -0.122036 1.022779
5.224264 -0.131497 1.022349
5.214495 -0.140864 1.022007
5.210155 -0.150070 1.021887
5.201472 -0.159355 1.021589
5.188446 -0.168698 1.021114
5.184105 -0.177837 1.020993
5.184107 -0.186890 1.021050
5.192795 -0.195813 1.021463
5.214511 -0.204594 1.022409
5.223199 -0.213599 1.022822
5.193888 -0.223004 1.021679
5.145034 -0.232467 1.019734
5.048411 -0.242067 1.015831
4.960473 -0.251297 1.012282
4.881220 -0.260202 1.009087
4.806310 -0.268831 1.006069
4.734657 -0.277206 1.003183
4.692317 -0.285400 1.001497
4.649978 -0.293450 0.999811
4.625009 -0.301453 0.998838
4.604383 -0.309402 0.998042
4.569643 -0.317153 0.996665
4.545760 -0.324902 0.995734
4.528391 -0.332651 0.995071
4.519708 -0.340463 0.994764
4.511024 -0.348245 0.994457
4.508855 -0.356112 0.994417
4.509942 -0.364034 0.994512
4.507773 -0.371891 0.994472
4.512118 -0.379888 0.994701
4.515377 -0.387874 0.994884
4.515379 -0.395786 0.994934
4.512124 -0.403608 0.994850
4.502354 -0.411227 0.994497
4.494757 -0.418880 0.994234
4.480645 -0.426293 0.993702
4.463275 -0.433546 0.993035
4.444821 -0.440699 0.992323
4.426366 -0.447790 0.991610
4.411168 -0.454948 0.991032
4.397056 -0.462098 0.990498
4.373173 -0.468779 0.989561
4.328661 -0.474455 0.987770
4.280892 -0.479827 0.985845
4.253752 -0.486031 0.984771
4.239639 -0.492792 0.984234
4.243984 -0.500458 0.984461
4.246157 -0.508023 0.984598
4.239645 -0.515118 0.984375
4.232047 -0.522129 0.984108
4.234220 -0.529685 0.984244
4.241822 -0.537574 0.984606
4.243995 -0.545154 0.984743
4.249425 -0.552948 0.985014
4.260284 -0.561116 0.985511
4.262458 -0.568738 0.985648
4.267888 -0.576592 0.985920
4.272233 -0.584387 0.986148
4.280920 -0.592511 0.986555
4.292865 -0.600904 0.987098
4.300467 -0.609010 0.987461
4.274412 -0.614545 0.986427
4.265728 -0.621360 0.986114
4.329786 -0.634010 0.988821
4.518701 -0.657154 0.996716
4.359375 -1.737330 0.996979
4.328975 -1.735010 0.995717
4.299661 -1.732943 0.994502
4.275776 -1.732575 0.993520
4.256233 -1.733571 0.992724
4.234520 -1.733774 0.991835
4.214978 -1.734633 0.991039
4.193264 -1.734691 0.990148
4.172636 -1.735045 0.989304
4.153094 -1.735698 0.988507
4.133552 -1.736285 0.987709
4.115096 -1.737180 0.986958
4.096639 -1.738012 0.986206
4.078183 -1.738781 0.985454
4.059727 -1.739487 0.984701
4.041270 -1.740130 0.983948
4.021728 -1.740327 0.983148
4.004357 -1.741228 0.982441
3.985901 -1.741682 0.981687
3.967444 -1.742073 0.980932
3.950073 -1.742793 0.980224
3.932703 -1.743453 0.979516
3.916417 -1.744449 0.978854
3.900133 -1.745389 0.978192
3.883847 -1.746274 0.977529
3.867563 -1.747103 0.976867
3.852363 -1.748279 0.976251
3.836078 -1.748999 0.975587
3.820879 -1.750069 0.974970
3.805679 -1.751088 0.974353
3.792652 -1.752874 0.973830
3.785053 -1.756673 0.973542
3.779626 -1.761272 0.973349
3.776370 -1.766684 0.973249
3.776372 -1.773335 0.973291
3.775288 -1.779568 0.973286
3.775289 -1.786217 0.973328
3.774205 -1.792444 0.973323
3.773121 -1.798668 0.973317
3.772037 -1.804887 0.973312
3.770953 -1.811103 0.973307
3.772040 -1.818175 0.973396
3.770956 -1.824387 0.973390
3.772043 -1.831463 0.973479
3.772045 -1.838107 0.973521
3.772047 -1.844751 0.973563
3.770963 -1.850956 0.973558
3.768793 -1.856716 0.973505
3.768794 -1.863355 0.973547
3.768796 -1.869993 0.973589
3.768798 -1.876632 0.973631
3.768799 -1.883270 0.973672
3.768801 -1.889908 0.973714
3.769888 -1.896999 0.973803
3.768804 -1.903185 0.973798
3.769892 -1.910280 0.973887
3.768808 -1.916462 0.973882
3.769895 -1.923560 0.973971
3.769897 -1.930201 0.974013
3.769898 -1.936841 0.974055
3.769900 -1.943481 0.974097
3.769902 -1.950122 0.974138
3.769903 -1.956762 0.974180
3.769905 -1.963402 0.974222
3.769906 -1.970043 0.974264
3.770994 -1.977158 0.974353
3.770996 -1.983800 0.974395
3.770997 -1.990442 0.974437
3.770999 -1.997084 0.974479
3.772086 -2.004208 0.974568
3.772088 -2.010852 0.974610
3.772090 -2.017496 0.974652
3.772091 -2.024140 0.974694
3.772093 -2.030784 0.974736
3.773180 -2.037919 0.974825
3.773182 -2.044565 0.974867
3.773184 -2.051211 0.974909
3.773185 -2.057857 0.974951
3.773187 -2.064503 0.974993
3.774275 -2.071649 0.975083
3.774276 -2.078297 0.975125
3.775364 -2.085449 0.975214
3.775365 -2.092098 0.975256
3.775367 -2.098748 0.975298
3.776454 -2.105907 0.975388
3.776456 -2.112558 0.975430
3.777544 -2.119723 0.975519
3.777545 -2.126376 0.975561
3.778633 -2.133547 0.975651
3.778634 -2.140202 0.975693
3.779722 -2.147378 0.975783
3.779723 -2.154035 0.975825
3.780811 -2.161216 0.975914
3.780813 -2.167875 0.975956
3.781900 -2.175062 0.976046
3.782988 -2.182252 0.976136
3.784075 -2.189447 0.976226
3.785163 -2.196645 0.976316
3.785164 -2.203311 0.976358
3.785166 -2.209977 0.976400
3.786253 -2.217183 0.976490
3.786255 -2.223851 0.976532
3.787342 -2.231062 0.976622
3.788430 -2.238277 0.976712
3.788432 -2.244948 0.976754
3.789519 -2.252169 0.976844
3.790607 -2.259392 0.976934
3.791694 -2.266620 0.977024
3.791696 -2.273298 0.977066
3.792783 -2.280531 0.977157
3.793871 -2.287768 0.977247
3.796044 -2.295568 0.977385
3.798217 -2.303375 0.977523
3.798219 -2.310064 0.977565
3.799307 -2.317318 0.977656
3.803651 -2.326276 0.977890
3.805825 -2.334111 0.978029
3.813427 -2.344807 0.978408
3.819944 -2.354957 0.978739
3.825375 -2.364554 0.979022
3.839492 -2.378780 0.979691
3.852524 -2.392476 0.980312
3.256623 -2.951342 0.959386
3.273999 -2.970888 0.960221
3.266399 -2.970640 0.959908
3.267486 -2.977287 0.959995
3.262058 -2.978736 0.959781
3.258802 -2.981903 0.959667
3.254460 -2.984189 0.959504
3.250118 -2.986461 0.959340
3.245776 -2.988717 0.959176
3.242519 -2.991835 0.959062
3.241435 -2.996698 0.959048
3.239264 -3.000677 0.958984
3.236008 -3.003767 0.958870
3.230580 -3.005079 0.958656
3.229495 -3.009914 0.958642
3.231669 -3.017407 0.958778
3.234928 -3.025796 0.958964
4.456294 3.436283 0.961191
4.467144 3.437235 0.961613
4.472570 3.433775 0.961849
4.477996 3.430296 0.962085
4.481252 3.425055 0.962246
4.484509 3.419803 0.962408
4.489935 3.416276 0.962644
4.495361 3.412730 0.962881
4.499702 3.408302 0.963080
4.505128 3.404721 0.963316
4.512724 3.402842 0.963628
4.517065 3.398362 0.963827
4.525746 3.397294 0.964176
4.533341 3.395341 0.964488
4.536598 3.389950 0.964651
4.544193 3.387953 0.964963
4.550704 3.385080 0.965238
4.556130 3.381338 0.965475
4.563726 3.379269 0.965788
4.569152 3.375486 0.966026
4.574578 3.371684 0.966264
4.580004 3.367865 0.966502
4.584346 3.363188 0.966703
4.589772 3.359334 0.966941
4.595198 3.355460 0.967179
4.602793 3.353233 0.967493
4.610389 3.350980 0.967807
4.616900 3.347872 0.968083
4.623411 3.344743 0.968360
4.629922 3.341591 0.968636
4.637518 3.339240 0.968951
4.648368 3.339327 0.969378
4.662473 3.341837 0.969919
4.673323 3.341844 0.970347
4.654884 3.319787 0.969758
4.543148 3.227786 0.965930
4.538811 3.216571 0.965829
4.538813 3.208613 0.965879
4.540985 3.202271 0.966005
4.542071 3.195116 0.966093
4.546413 3.190371 0.966294
4.547500 3.183203 0.966382
4.549671 3.176831 0.966508
4.550758 3.169654 0.966596
4.551845 3.162472 0.966684
4.552931 3.155287 0.966772
4.555103 3.148892 0.966898
4.556190 3.141698 0.966986
4.558362 3.135290 0.967112
4.559448 3.128086 0.967200
4.560535 3.120878 0.967289
4.561622 3.113668 0.967377
4.562709 3.106453 0.967465
4.563796 3.099235 0.967553
4.564883 3.092012 0.967642
4.565969 3.084786 0.967730
4.567056 3.077557 0.967818
4.569228 3.071097 0.967945
4.571400 3.064630 0.968071
4.572486 3.057385 0.968160
4.574658 3.050905 0.968286
4.576830 3.044417 0.968413
4.577917 3.037158 0.968501
4.580088 3.030657 0.968628
4.581175 3.023389 0.968716
4.583347 3.016876 0.968843
4.585519 3.010355 0.968970
4.587690 3.003826 0.969096
4.588777 2.996537 0.969185
4.590949 2.989996 0.969312
4.593120 2.983447 0.969439
4.595292 2.976891 0.969566
4.597464 2.970327 0.969693
4.600720 2.964500 0.969858
4.602892 2.957920 0.969985
4.606149 2.952072 0.970150
4.609405 2.946213 0.970316
4.612662 2.940343 0.970481
4.615918 2.934462 0.970647
4.619175 2.928570 0.970812
4.622431 2.922667 0.970978
4.624603 2.916024 0.971105
4.627860 2.910100 0.971271
4.631116 2.904165 0.971437
4.634373 2.898220 0.971603
4.636544 2.891541 0.971730
4.638716 2.884855 0.971858
4.641973 2.878880 0.972024
4.644144 2.872178 0.972152
4.647401 2.866182 0.972318
4.649573 2.859463 0.972446
4.652829 2.853446 0.972613
4.657171 2.848128 0.972817
4.661512 2.842794 0.973022
4.666938 2.838151 0.973265
4.674534 2.834894 0.973586
4.684300 2.833015 0.973983
4.695151 2.831800 0.974418
4.706002 2.830550 0.974854
4.720107 2.831348 0.975406
4.735297 2.832792 0.975996
4.751572 2.834876 0.976625
4.768932 2.837595 0.977292
4.787376 2.840943 0.977999
4.805821 2.844227 0.978706
4.823180 2.846764 0.979375
4.840541 2.849243 0.980044
4.858985 2.852342 0.980752
4.877430 2.855378 0.981460
4.900214 2.861060 0.982323
4.924083 2.867339 0.983225
4.949037 2.874210 0.984167
4.979415 2.884354 0.985301
5.006539 2.892384 0.986320
5.029323 2.897651 0.987186
5.049938 2.901509 0.987975
5.068383 2.903968 0.988687
5.088998 2.907688 0.989477
5.107442 2.910017 0.990190
5.125888 2.912284 0.990903
5.147587 2.916457 0.991733
5.169287 2.920557 0.992563
5.190986 2.924582 0.993394
5.217025 2.931138 0.994380
5.244149 2.938254 0.995405
5.271273 2.945278 0.996431
5.295142 2.950272 0.997341
5.278540 -0.093133 1.015842
5.257926 -0.103011 1.015091
5.242739 -0.112654 1.014552
5.230805 -0.122152 1.014141
5.217787 -0.131639 1.013688
5.206940 -0.141027 1.013319
5.202602 -0.150226 1.013206
5.198264 -0.159410 1.013092
5.193926 -0.168578 1.012979
5.191758 -0.177693 1.012951
5.189590 -0.186800 1.012922
5.195018 -0.195786 1.013193
5.206955 -0.204706 1.013720
5.211298 -0.213753 1.013948
5.199365 -0.222974 1.013536
5.187432 -0.232154 1.013123
5.138608 -0.241527 1.011256
5.069168 -0.250830 1.008575
5.001899 -0.259890 1.005979
4.908588 -0.268752 1.002354
4.829383 -0.277302 0.999283
4.763199 -0.285610 0.996724
4.726310 -0.293807 0.995321
4.705696 -0.301968 0.994559
4.673147 -0.309972 0.993325
4.619983 -0.317680 0.991277
4.574413 -0.325287 0.989527
4.550545 -0.333008 0.988634
4.536441 -0.340786 0.988127
4.524508 -0.348550 0.987705
4.520170 -0.356406 0.987583
4.524512 -0.364415 0.987805
4.531024 -0.372484 0.988112
4.540792 -0.380649 0.988549
4.545133 -0.388715 0.988771
4.546220 -0.396710 0.988864
4.544052 -0.404620 0.988829
4.539714 -0.412458 0.988707
4.536461 -0.420314 0.988628
4.526698 -0.427946 0.988291
4.509339 -0.435282 0.987652
4.489810 -0.442479 0.986927
4.469197 -0.449569 0.986159
4.450753 -0.456674 0.985476
4.438819 -0.463987 0.985051
4.413866 -0.470697 0.984109
4.352020 -0.475667 0.981701
4.307535 -0.481235 0.979981
4.283666 -0.487646 0.979080
4.281498 -0.495059 0.979041
4.281500 -0.502577 0.979088
4.281502 -0.510095 0.979136
4.273908 -0.517194 0.978881
4.270655 -0.524514 0.978798
4.272827 -0.532140 0.978932
4.277169 -0.539905 0.979152
4.273916 -0.547213 0.979070
4.279343 -0.555063 0.979333
4.251134 -0.560735 0.978256
4.256561 -0.568565 0.978520
4.269583 -0.576935 0.979086
4.271755 -0.584585 0.979220
4.288033 -0.593260 0.979917
4.309735 -0.602391 0.980830
4.326013 -0.611187 0.981528
4.492028 -0.631605 0.988205
4.352334 -1.735960 0.989646
4.324123 -1.734343 0.988523
4.299167 -1.733704 0.987534
4.274211 -1.732979 0.986545
4.253595 -1.733616 0.985736
4.230810 -1.733455 0.984836
4.211280 -1.734312 0.984071
4.190664 -1.734735 0.983260
4.170049 -1.735089 0.982449
4.151603 -1.736113 0.981728
4.132073 -1.736702 0.980962
4.112543 -1.737224 0.980194
4.094097 -1.738055 0.979472
4.075652 -1.738824 0.978749
4.057207 -1.739530 0.978026
4.038761 -1.740173 0.977303
4.020316 -1.740753 0.976579
4.001871 -1.741270 0.975854
3.983425 -1.741724 0.975129
3.966065 -1.742504 0.974450
3.948705 -1.743225 0.973769
3.932430 -1.744280 0.973134
3.915069 -1.744885 0.972453
3.898794 -1.745827 0.971817
3.882519 -1.746713 0.971180
3.866244 -1.747544 0.970544
3.849969 -1.748319 0.969906
3.834778 -1.749443 0.969314
3.818503 -1.750110 0.968676
3.804398 -1.751536 0.968129
3.792463 -1.753733 0.967672
3.784869 -1.757535 0.967396
3.779445 -1.762139 0.967211
3.777276 -1.767969 0.967163
3.777278 -1.774626 0.967205
3.776195 -1.780864 0.967201
3.776196 -1.787519 0.967243
3.775113 -1.793752 0.967240
3.774029 -1.799981 0.967236
3.772946 -1.806206 0.967232
3.771862 -1.812427 0.967229
3.771864 -1.819075 0.967271
3.771866 -1.825723 0.967313
3.772952 -1.832804 0.967400
3.772954 -1.839454 0.967442
3.772956 -1.846103 0.967484
3.770787 -1.851874 0.967435
3.769704 -1.858079 0.967431
3.769705 -1.864723 0.967473
3.769707 -1.871367 0.967515
3.769709 -1.878011 0.967557
3.769710 -1.884655 0.967599
3.769712 -1.891299 0.967640
3.770799 -1.898396 0.967728
3.769715 -1.904587 0.967724
3.770802 -1.911687 0.967812
3.769719 -1.917875 0.967808
3.770805 -1.924979 0.967896
3.770807 -1.931625 0.967937
3.770809 -1.938271 0.967979
3.770810 -1.944917 0.968021
3.770812 -1.951563 0.968063
3.770814 -1.958208 0.968105
3.770815 -1.964854 0.968147
3.770817 -1.971500 0.968189
3.771904 -1.978621 0.968277
3.771905 -1.985268 0.968318
3.771907 -1.991916 0.968360
3.771909 -1.998564 0.968402
3.772996 -2.005693 0.968490
3.772997 -2.012343 0.968532
3.772999 -2.018992 0.968574
3.773000 -2.025642 0.968616
3.773002 -2.032292 0.968658
3.774089 -2.039432 0.968745
3.774091 -2.046084 0.968787
3.774092 -2.052735 0.968829
3.774094 -2.059387 0.968871
3.774095 -2.066038 0.968913
3.775182 -2.073190 0.969001
3.775184 -2.079843 0.969043
3.775186 -2.086496 0.969085
3.776273 -2.093656 0.969173
3.776274 -2.100311 0.969215
3.777361 -2.107475 0.969303
3.777363 -2.114132 0.969345
3.777364 -2.120789 0.969387
3.778451 -2.127962 0.969475
3.779538 -2.135137 0.969563
3.779540 -2.141798 0.969605
3.780626 -2.148980 0.969693
3.780628 -2.155642 0.969735
3.780630 -2.162305 0.969777
3.781716 -2.169493 0.969865
3.782803 -2.176686 0.969953
3.783890 -2.183882 0.970041
3.784977 -2.191082 0.970130
3.784979 -2.197752 0.970172
3.784980 -2.204422 0.970214
3.786067 -2.211629 0.970302
3.787154 -2.218840 0.970390
3.787156 -2.225514 0.970432
3.788242 -2.232730 0.970520
3.789329 -2.239951 0.970609
3.789331 -2.246628 0.970651
3.790418 -2.253854 0.970739
3.791505 -2.261083 0.970828
3.792591 -2.268317 0.970916
3.792593 -2.275000 0.970958
3.794765 -2.282794 0.971093
3.795852 -2.290039 0.971181
3.796939 -2.297287 0.971270
3.800196 -2.305661 0.971451
3.801283 -2.312920 0.971540
3.802370 -2.320183 0.971628
3.805627 -2.328584 0.971810
3.808884 -2.336995 0.971991
3.816482 -2.347701 0.972358
3.824080 -2.358432 0.972725
3.828422 -2.367466 0.972954
3.849042 -2.385159 0.973878
3.872917 -2.404656 0.974943
3.262184 -2.957393 0.954330
3.266526 -2.966616 0.954559
3.265442 -2.971538 0.954548
3.261103 -2.973861 0.954391
3.258934 -2.977903 0.954331
3.257850 -2.982807 0.954319
3.252425 -2.984224 0.954114
3.248086 -2.986495 0.953957
3.244831 -2.989626 0.953848
3.242662 -2.993622 0.953788
3.242664 -2.999366 0.953824
3.241580 -3.004230 0.953812
3.239411 -3.008210 0.953752
3.232901 -3.008647 0.953497
3.236158 -3.017031 0.953679
3.243756 -3.028975 0.954054
3.251354 -3.040945 0.954429
4.457870 3.439752 0.954019
4.467629 3.439819 0.954389
4.474136 3.437228 0.954651
4.478474 3.432868 0.954843
4.482813 3.428494 0.955035
4.486067 3.423234 0.955191
4.491490 3.419700 0.955419
4.495829 3.415281 0.955611
4.500167 3.410847 0.955803
4.505590 3.407260 0.956031
4.513181 3.405376 0.956331
4.518604 3.401748 0.956559
4.526195 3.399816 0.956859
4.533786 3.397857 0.957158
4.538125 3.393314 0.957351
4.544632 3.390458 0.957616
4.551139 3.387580 0.957880
4.556562 3.383832 0.958109
4.565237 3.382603 0.958446
4.569576 3.377969 0.958639
4.574999 3.374162 0.958868
4.580422 3.370337 0.959098
4.584760 3.365654 0.959292
4.590183 3.361794 0.959521
4.595606 3.357915 0.959751
4.602113 3.354850 0.960017
4.609704 3.352593 0.960319
4.616211 3.349482 0.960585
4.622718 3.346348 0.960851
4.629225 3.343193 0.961117
4.636817 3.340838 0.961419
4.646576 3.340100 0.961794
4.660672 3.342607 0.962312
4.662842 3.336071 0.962435
4.680191 3.340950 0.963062
4.558766 3.241576 0.959088
4.541421 3.220584 0.958563
4.539255 3.210996 0.958542
4.540341 3.203840 0.958628
4.541427 3.196681 0.958714
4.545766 3.191933 0.958908
4.547936 3.185563 0.959031
4.550106 3.179187 0.959153
4.551193 3.172004 0.959239
4.552279 3.164817 0.959326
4.553365 3.157626 0.959412
4.555535 3.151225 0.959535
4.556621 3.144025 0.959621
4.558792 3.137612 0.959744
4.559878 3.130402 0.959830
4.560964 3.123190 0.959917
4.560966 3.115189 0.959967
4.563136 3.108753 0.960090
4.563138 3.100748 0.960140
4.564225 3.093522 0.960227
4.566395 3.087070 0.960350
4.567481 3.079835 0.960436
4.569652 3.073369 0.960559
4.570738 3.066125 0.960646
4.572908 3.059646 0.960769
4.573994 3.052393 0.960856
4.576165 3.045901 0.960979
4.578335 3.039402 0.961102
4.579422 3.032134 0.961189
4.581592 3.025622 0.961312
4.582678 3.018344 0.961399
4.584848 3.011820 0.961522
4.587019 3.005288 0.961646
4.589189 2.998748 0.961769
4.591359 2.992201 0.961892
4.593530 2.985647 0.962016
4.595700 2.979085 0.962139
4.597870 2.972516 0.962263
4.600041 2.965939 0.962386
4.603296 2.960097 0.962546
4.605466 2.953504 0.962670
4.608721 2.947641 0.962830
4.611975 2.941767 0.962991
4.615230 2.935883 0.963151
4.618484 2.929987 0.963311
4.621739 2.924080 0.963472
4.624993 2.918162 0.963632
4.628248 2.912233 0.963793
4.630419 2.905567 0.963917
4.633673 2.899618 0.964078
4.635843 2.892935 0.964202
4.639098 2.886966 0.964363
4.641268 2.880267 0.964487
4.644523 2.874277 0.964648
4.646694 2.867561 0.964773
4.648864 2.860838 0.964897
4.652119 2.854819 0.965058
4.656457 2.849496 0.965256
4.660796 2.844159 0.965454
4.666219 2.839511 0.965689
4.673811 2.836251 0.965997
4.682486 2.833667 0.966342
4.693330 2.832450 0.966760
4.704174 2.831198 0.967179
4.718271 2.831994 0.967707
4.733452 2.833436 0.968273
4.748633 2.834827 0.968840
4.767067 2.838235 0.969516
4.785500 2.841580 0.970193
4.803934 2.844863 0.970871
4.820199 2.846714 0.971475
4.837548 2.849192 0.972117
4.854897 2.851610 0.972759
4.873331 2.854649 0.973438
4.895018 2.859655 0.974227
4.918872 2.865937 0.975091
4.942727 2.872138 0.975956
4.974171 2.882959 0.977079
5.003447 2.892332 0.978128
5.027301 2.898266 0.978994
5.047904 2.902122 0.979751
5.066338 2.904579 0.980433
5.085856 2.907635 0.981153
5.104289 2.909964 0.981837
5.122723 2.912230 0.982521
5.143326 2.915747 0.983279
5.165012 2.919848 0.984074
5.187783 2.924528 0.984907
5.212722 2.930432 0.985815
5.236577 2.935602 0.986686
5.262600 2.941986 0.987631
5.285371 2.946343 0.988466
5.287212 -0.092787 1.007666
5.259021 -0.102927 1.006662
5.239504 -0.112709 1.005984
5.223241 -0.122331 1.005429
5.208062 -0.131868 1.004914
5.196136 -0.141272 1.004522
5.189632 -0.150509 1.004334
5.185297 -0.159676 1.004227
5.184215 -0.168763 1.004243
5.186386 -0.177787 1.004382
5.188557 -0.186818 1.004521
5.190728 -0.195857 1.004661
5.191815 -0.204917 1.004759
5.195070 -0.213956 1.004939
5.190735 -0.223081 1.004832
5.179894 -0.232243 1.004479
5.157124 -0.241443 1.003675
5.127848 -0.250597 1.002624
5.093150 -0.259666 1.001366
5.031343 -0.268649 0.999082
4.978211 -0.277426 0.997125
4.921825 -0.286014 0.995044
4.886043 -0.294490 0.993742
4.870864 -0.302960 0.993220
4.838335 -0.311251 0.992040
4.785202 -0.319244 0.990078
4.728817 -0.327022 0.987992
4.682191 -0.334728 0.986274
4.650746 -0.342490 0.985132
4.603035 -0.349886 0.983372
4.547734 -0.356987 0.981322
4.553158 -0.365068 0.981578
4.557497 -0.373145 0.981793
4.569427 -0.381409 0.982297
4.585695 -0.389820 0.982966
4.614975 -0.398626 0.984131
4.616062 -0.406747 0.984223
4.605220 -0.414521 0.983861
4.597631 -0.422359 0.983623
4.585705 -0.430028 0.983220
4.567273 -0.437432 0.982568
4.551008 -0.444851 0.981999
4.528238 -0.451967 0.981181
4.507637 -0.459092 0.980446
4.497880 -0.466596 0.980124
4.458844 -0.472802 0.978684
4.346070 -0.475567 0.974431
4.313540 -0.481685 0.973237
4.294022 -0.488319 0.972540
4.295109 -0.495917 0.972629
4.308123 -0.504135 0.973173
4.308125 -0.511703 0.973221
4.304874 -0.519092 0.973144
4.303792 -0.526592 0.973151
4.302709 -0.534089 0.973157
4.304880 -0.541778 0.973287
4.297291 -0.548870 0.973045
4.356934 -0.560216 0.975375
4.344214 -1.734235 0.982283
4.318189 -1.733321 0.981292
4.296502 -1.733749 0.980473
4.272645 -1.733384 0.979567
4.250957 -1.733660 0.978748
4.228186 -1.733499 0.977884
4.208667 -1.734356 0.977150
4.186980 -1.734412 0.976329
4.167461 -1.735132 0.975594
4.147943 -1.735786 0.974859
4.128424 -1.736372 0.974124
4.109990 -1.737267 0.973431
4.091556 -1.738098 0.972738
4.073121 -1.738867 0.972045
4.054687 -1.739573 0.971351
4.036253 -1.740215 0.970657
4.017819 -1.740795 0.969963
3.999384 -1.741312 0.969268
3.982035 -1.742153 0.968616
3.964685 -1.742935 0.967964
3.947335 -1.743658 0.967311
3.931070 -1.744715 0.966702
3.913720 -1.745321 0.966048
3.897455 -1.746265 0.965438
3.881189 -1.747153 0.964828
3.864923 -1.747985 0.964217
3.848658 -1.748762 0.963606
3.833477 -1.749888 0.963038
3.817212 -1.750556 0.962426
3.803115 -1.751984 0.961901
3.791188 -1.754183 0.961463
3.784682 -1.758398 0.961244
3.780346 -1.763419 0.961111
3.778179 -1.769254 0.961066
3.778181 -1.775917 0.961108
3.777098 -1.782161 0.961106
3.777099 -1.788821 0.961148
3.776016 -1.795059 0.961146
3.774934 -1.801294 0.961144
3.773851 -1.807525 0.961143
3.772768 -1.813752 0.961141
3.772770 -1.820405 0.961183
3.772772 -1.827058 0.961225
3.773858 -1.834145 0.961310
3.773859 -1.840800 0.961352
3.772776 -1.847018 0.961350
3.771693 -1.853232 0.961349
3.770611 -1.859442 0.961347
3.770612 -1.866092 0.961389
3.770614 -1.872741 0.961430
3.770616 -1.879391 0.961472
3.770617 -1.886041 0.961514
3.770619 -1.892690 0.961556
3.771705 -1.899792 0.961642
3.770622 -1.905989 0.961640
