# .PCD v0.7 - Point Cloud Data file format
VERSION 0.7
FIELDS x y z
SIZE 4 4 4
TYPE F F F
COUNT 1 1 1
WIDTH 1723
HEIGHT 1
VIEWPOINT 0 0 0 1 0 0 0
POINTS 1723
DATA ascii
4.053928 -0.141686 0.211274
4.051900 -0.149344 0.211591
4.050886 -0.156969 0.211764
4.049872 -0.164590 0.211937
4.049874 -0.172186 0.211968
4.048860 -0.179802 0.212141
4.048862 -0.187395 0.212171
4.047848 -0.195005 0.212345
4.046834 -0.202612 0.212518
4.046836 -0.210202 0.212548
4.046837 -0.217792 0.212578
4.045823 -0.225391 0.212752
4.045825 -0.232979 0.212782
4.045826 -0.240567 0.212812
4.045828 -0.248156 0.212842
4.044814 -0.255745 0.213015
4.045831 -0.263332 0.212902
4.044817 -0.270918 0.213076
4.043804 -0.278500 0.213249
4.043805 -0.286085 0.213279
4.042792 -0.293662 0.213452
4.042793 -0.301244 0.213482
4.041779 -0.308816 0.213656
4.039750 -0.316370 0.213972
4.038737 -0.323932 0.214145
4.036708 -0.331473 0.214461
4.034679 -0.339007 0.214777
4.032650 -0.346533 0.215094
4.031637 -0.354075 0.215267
4.030623 -0.361613 0.215440
4.028594 -0.369121 0.215756
4.027580 -0.376649 0.215929
4.027582 -0.384204 0.215959
4.027583 -0.391759 0.215989
4.027585 -0.399314 0.216019
4.026571 -0.406833 0.216192
4.026572 -0.414387 0.216222
4.026574 -0.421940 0.216252
4.026575 -0.429493 0.216282
4.026577 -0.437046 0.216312
4.027593 -0.444644 0.216199
4.027595 -0.452198 0.216229
4.027596 -0.459753 0.216259
4.027598 -0.467308 0.216289
4.026584 -0.474811 0.216462
4.026586 -0.482364 0.216492
4.025572 -0.489861 0.216665
4.025574 -0.497413 0.216695
4.024560 -0.504904 0.216868
4.024561 -0.512453 0.216898
4.023548 -0.519940 0.217071
4.023549 -0.527487 0.217101
4.023551 -0.535035 0.217131
4.022537 -0.542513 0.217304
4.022539 -0.550059 0.217334
4.022540 -0.557605 0.217364
4.022542 -0.565150 0.217394
4.021528 -0.572620 0.217567
4.022545 -0.580242 0.217454
4.021530 -0.587707 0.217627
4.021532 -0.595251 0.217657
4.020518 -0.602711 0.217829
4.019505 -0.610168 0.218002
4.018491 -0.617620 0.218175
4.016462 -0.624980 0.218490
4.015448 -0.632424 0.218663
4.014435 -0.639863 0.218836
4.014436 -0.647394 0.218866
4.012407 -0.654732 0.219181
4.011394 -0.662161 0.219354
4.010380 -0.669585 0.219526
4.008351 -0.676905 0.219842
4.007337 -0.684320 0.220014
4.006324 -0.691732 0.220187
4.004295 -0.699033 0.220502
4.003281 -0.706436 0.220675
4.001252 -0.713723 0.220990
3.999223 -0.721003 0.221305
3.997195 -0.728276 0.221620
3.996181 -0.735659 0.221792
3.994152 -0.742918 0.222108
3.993138 -0.750291 0.222280
3.992124 -0.757661 0.222452
3.990096 -0.764902 0.222767
3.989082 -0.772262 0.222940
3.988068 -0.779619 0.223112
3.988069 -0.787102 0.223142
3.987056 -0.794452 0.223314
3.987057 -0.801933 0.223344
3.985028 -0.809143 0.223659
3.984015 -0.816483 0.223831
3.984016 -0.823958 0.223861
3.984018 -0.831434 0.223890
3.983004 -0.838766 0.224063
3.981990 -0.846095 0.224235
3.981991 -0.853566 0.224265
3.980978 -0.860889 0.224437
3.979964 -0.868209 0.224609
3.978950 -0.875525 0.224781
3.977937 -0.882837 0.224953
3.976923 -0.890145 0.225126
3.975910 -0.897450 0.225298
3.974895 -0.904751 0.225470
3.974897 -0.912209 0.225500
3.973883 -0.919505 0.225672
3.971854 -0.926631 0.225986
3.971856 -0.934084 0.226016
3.970842 -0.941369 0.226188
3.969829 -0.948649 0.226360
3.968814 -0.955926 0.226532
3.967801 -0.963199 0.226704
3.966787 -0.970469 0.226876
3.966789 -0.977912 0.226906
3.965775 -0.985176 0.227078
3.964761 -0.992437 0.227250
3.963748 -0.999693 0.227422
3.963749 -1.007131 0.227451
3.962735 -1.014382 0.227623
3.962737 -1.021819 0.227653
3.961723 -1.029064 0.227825
3.960709 -1.036306 0.227996
3.959695 -1.043544 0.228168
3.959697 -1.050975 0.228198
3.958683 -1.058207 0.228370
3.956654 -1.065236 0.228684
3.956656 -1.072661 0.228713
3.954627 -1.079678 0.229028
3.953613 -1.086894 0.229199
3.952599 -1.094106 0.229371
3.950570 -1.101105 0.229685
3.949557 -1.108308 0.229857
3.947527 -1.115294 0.230171
3.947529 -1.122702 0.230200
3.945500 -1.129677 0.230514
3.944486 -1.136863 0.230686
3.943473 -1.144046 0.230858
3.943474 -1.151447 0.230887
3.941445 -1.158399 0.231201
3.941447 -1.165797 0.231230
3.940433 -1.172966 0.231402
3.940434 -1.180362 0.231431
3.939420 -1.187526 0.231603
3.939422 -1.194920 0.231632
3.939423 -1.202314 0.231662
3.939425 -1.209708 0.231691
3.939426 -1.217101 0.231720
3.939428 -1.224495 0.231750
3.939429 -1.231889 0.231779
3.940446 -1.239528 0.231667
3.939432 -1.246677 0.231838
3.940449 -1.254319 0.231725
3.939435 -1.261465 0.231897
3.938421 -1.268606 0.232068
3.937408 -1.275744 0.232240
3.936394 -1.282879 0.232411
3.935380 -1.290009 0.232583
3.935381 -1.297396 0.232612
3.934368 -1.304521 0.232784
3.933354 -1.311642 0.232955
3.933355 -1.319025 0.232984
3.932342 -1.326141 0.233156
3.931328 -1.333253 0.233327
3.929299 -1.340091 0.233640
3.929300 -1.347466 0.233670
3.928287 -1.354567 0.233841
3.928288 -1.361941 0.233870
3.927274 -1.369036 0.234042
3.925245 -1.375848 0.234355
3.923216 -1.382652 0.234668
3.922202 -1.389733 0.234840
3.920173 -1.396524 0.235153
3.918145 -1.403308 0.235466
3.915100 -1.409796 0.235921
3.911041 -1.415981 0.236518
3.910027 -1.423030 0.236689
3.879572 -1.421529 0.240976
3.789220 -1.402419 0.253635
3.754704 -1.399393 0.258489
3.738462 -1.401645 0.260787
3.723235 -1.404141 0.262943
3.710039 -1.407188 0.264816
3.694812 -1.409577 0.266972
3.680601 -1.412217 0.268986
3.669435 -1.415734 0.270574
3.658269 -1.419210 0.272161
3.648118 -1.422959 0.273607
3.639997 -1.427301 0.274769
3.631877 -1.431613 0.275931
3.623757 -1.435896 0.277093
3.615636 -1.440149 0.278255
3.608531 -1.444695 0.279274
3.601426 -1.449215 0.280294
3.594321 -1.453709 0.281314
3.587216 -1.458177 0.282333
3.581126 -1.462949 0.283211
3.576051 -1.468031 0.283946
3.570976 -1.473094 0.284682
3.565901 -1.478138 0.285417
3.562857 -1.483839 0.285869
3.560828 -1.489868 0.286180
3.558799 -1.495889 0.286490
3.557785 -1.502246 0.286658
3.558801 -1.509288 0.286543
3.558803 -1.515988 0.286570
3.560834 -1.523385 0.286313
3.561851 -1.530438 0.286198
3.564898 -1.538200 0.285799
3.565914 -1.545264 0.285684
3.568961 -1.553044 0.285286
3.570993 -1.560478 0.285029
3.570995 -1.567200 0.285056
3.572011 -1.574283 0.284941
3.573027 -1.581370 0.284826
3.574044 -1.588461 0.284711
3.574045 -1.595188 0.284738
3.573031 -1.601547 0.284907
3.572018 -1.607902 0.285075
3.571004 -1.614253 0.285243
3.569990 -1.620600 0.285412
3.567961 -1.626568 0.285722
3.564916 -1.632150 0.286173
3.562887 -1.638101 0.286483
3.561873 -1.644427 0.286651
3.559844 -1.650365 0.286961
3.558830 -1.656681 0.287129
3.556801 -1.662606 0.287439
3.554772 -1.668523 0.287749
3.553758 -1.674825 0.287917
3.550714 -1.680337 0.288368
3.549700 -1.686627 0.288536
3.547671 -1.692517 0.288846
3.546657 -1.698798 0.289014
3.544627 -1.704675 0.289323
3.543614 -1.710946 0.289491
3.541584 -1.716810 0.289801
3.540570 -1.723073 0.289969
3.539556 -1.729331 0.290137
3.537527 -1.735177 0.290446
3.535498 -1.741015 0.290756
3.534484 -1.747259 0.290924
3.532455 -1.753084 0.291233
3.530426 -1.758902 0.291542
3.529412 -1.765131 0.291710
3.527383 -1.770935 0.292019
3.525354 -1.776733 0.292329
3.523325 -1.782523 0.292638
3.520280 -1.787879 0.293089
3.519266 -1.794080 0.293256
3.518252 -1.800278 0.293424
3.516223 -1.806040 0.293733
3.514194 -1.811795 0.294042
3.512165 -1.817542 0.294351
3.509120 -1.822845 0.294802
3.507091 -1.828576 0.295111
3.505062 -1.834299 0.295420
3.502017 -1.839572 0.295870
3.499988 -1.845279 0.296179
3.497959 -1.850978 0.296488
3.493899 -1.855773 0.297079
3.491870 -1.861454 0.297388
3.487810 -1.866223 0.297979
3.484766 -1.871431 0.298429
3.480706 -1.876173 0.299020
3.476647 -1.880899 0.299612
3.472587 -1.885611 0.300203
3.468527 -1.890308 0.300794
3.463452 -1.894527 0.301526
3.458377 -1.898727 0.302258
3.452287 -1.902442 0.303132
3.447212 -1.906604 0.303864
3.441122 -1.910276 0.304737
3.436047 -1.914399 0.305469
3.429957 -1.918029 0.306342
3.423867 -1.921637 0.307214
3.416761 -1.924744 0.308229
3.410671 -1.928306 0.309101
3.402550 -1.930881 0.310256
3.394430 -1.933428 0.311411
3.387324 -1.936430 0.312425
3.379203 -1.938918 0.313579
3.370067 -1.940889 0.314875
3.361947 -1.943316 0.316030
3.352811 -1.945222 0.317325
3.344690 -1.947588 0.318479
3.337584 -1.950422 0.319492
3.329464 -1.952731 0.320646
3.321343 -1.955011 0.321800
3.314237 -1.957763 0.322812
3.307132 -1.960489 0.323825
3.300026 -1.963189 0.324837
3.293936 -1.966371 0.325709
3.287846 -1.969531 0.326580
3.282771 -1.973179 0.327310
3.276680 -1.976297 0.328181
3.271605 -1.979906 0.328910
3.267545 -1.984015 0.329499
3.262470 -1.987589 0.330229
3.259426 -1.992187 0.330676
3.256381 -1.996773 0.331124
3.253337 -2.001348 0.331571
3.248262 -2.004860 0.332301
3.244202 -2.008881 0.332889
3.240142 -2.012888 0.333478
3.236082 -2.016879 0.334066
3.234053 -2.021923 0.334372
3.233039 -2.027495 0.334537
3.232025 -2.033063 0.334703
3.238117 -2.042401 0.333881
3.244210 -2.051762 0.333060
3.760981 -2.348301 0.261404
3.768089 -2.359207 0.260446
3.773166 -2.369039 0.259769
3.776214 -2.377786 0.259375
3.778246 -2.385989 0.259121
3.775201 -2.391422 0.259572
3.773172 -2.397400 0.259882
3.770127 -2.402812 0.260333
3.768098 -2.408774 0.260643
3.765054 -2.414166 0.261093
3.762010 -2.419546 0.261544
3.756935 -2.423782 0.262276
3.753890 -2.429137 0.262727
3.750846 -2.434480 0.263177
3.749832 -2.440957 0.263346
3.748818 -2.447431 0.263515
3.746789 -2.453324 0.263825
3.745775 -2.459788 0.263994
3.744761 -2.466249 0.264162
3.744763 -2.473287 0.264190
3.742733 -2.479159 0.264500
3.742735 -2.486193 0.264528
3.742736 -2.493228 0.264556
3.742737 -2.500263 0.264584
3.742739 -2.507297 0.264612
3.742740 -2.514332 0.264640
3.742742 -2.521367 0.264668
3.741728 -2.527805 0.264836
3.741729 -2.534838 0.264864
3.741730 -2.541871 0.264892
3.741732 -2.548904 0.264920
3.740718 -2.555333 0.265089
3.739704 -2.561758 0.265258
3.738690 -2.568180 0.265426
3.737676 -2.574598 0.265595
3.736662 -2.581012 0.265764
3.735648 -2.587422 0.265932
3.735650 -2.594444 0.265960
3.735651 -2.601466 0.265988
3.733622 -2.607250 0.266297
3.734639 -2.614889 0.266184
3.734640 -2.621909 0.266212
3.736672 -2.630177 0.265959
3.737689 -2.637827 0.265846
3.738705 -2.645480 0.265734
3.741752 -2.654397 0.265340
3.736677 -2.658271 0.266071
3.729572 -2.660861 0.267083
3.722466 -2.663424 0.268095
3.709269 -2.662138 0.269950
3.689980 -2.656970 0.272648
3.602668 -2.608791 0.284763
3.548859 -2.581504 0.292238
3.528555 -2.575293 0.295075
3.509266 -2.569655 0.297772
3.493023 -2.565891 0.300046
3.474749 -2.560767 0.302602
3.456475 -2.555577 0.305157
3.440232 -2.551628 0.307430
3.428050 -2.550242 0.309142
3.417899 -2.550128 0.310573
3.407747 -2.549976 0.312003
3.397596 -2.549787 0.313433
3.385413 -2.548235 0.315144
3.375262 -2.547968 0.316574
3.364095 -2.546998 0.318144
3.352928 -2.545987 0.319714
3.342776 -2.545605 0.321144
3.332625 -2.545187 0.322573
3.323489 -2.545406 0.323862
3.314352 -2.545591 0.325150
3.309277 -2.548455 0.325877
3.306232 -2.552660 0.326323
3.304203 -2.557536 0.326629
3.304204 -2.563771 0.326653
3.306236 -2.571376 0.326397
3.308268 -2.578989 0.326142
3.313346 -2.588677 0.325465
3.317408 -2.597692 0.324928
3.320455 -2.606029 0.324532
3.324517 -2.615072 0.323996
3.327564 -2.623434 0.323599
3.328581 -2.630409 0.323484
3.329597 -2.637389 0.323369
3.330614 -2.644372 0.323253
3.329600 -2.649951 0.323419
3.328586 -2.655527 0.323584
3.326557 -2.660391 0.323890
3.325542 -2.665958 0.324055
3.323513 -2.670809 0.324360
3.321484 -2.675653 0.324666
3.320470 -2.681205 0.324831
3.318440 -2.686035 0.325136
3.318441 -2.692296 0.325161
3.318443 -2.698557 0.325186
3.321490 -2.706985 0.324790
3.322506 -2.713976 0.324675
3.323523 -2.720970 0.324560
3.325555 -2.728696 0.324304
3.326571 -2.735700 0.324189
3.328603 -2.743439 0.323934
3.330635 -2.751185 0.323678
3.331651 -2.758204 0.323563
3.332668 -2.765226 0.323448
3.332669 -2.771512 0.323473
3.332670 -2.777799 0.323498
3.332671 -2.784086 0.323523
3.332673 -2.790373 0.323548
3.332674 -2.796660 0.323573
3.331660 -2.802198 0.323738
3.330646 -2.807733 0.323903
3.328616 -2.812512 0.324208
3.326587 -2.817284 0.324514
3.323542 -2.821293 0.324959
3.320498 -2.825290 0.325404
3.315422 -2.827758 0.326129
3.312378 -2.831730 0.326574
3.310348 -2.836453 0.326879
3.306288 -2.839640 0.327464
3.304259 -2.844345 0.327769
3.303245 -2.849811 0.327934
3.301216 -2.854503 0.328239
3.300202 -2.859961 0.328404
3.299187 -2.865414 0.328568
3.298173 -2.870864 0.328733
3.298174 -2.877087 0.328758
3.299191 -2.884091 0.328643
3.300208 -2.891098 0.328528
3.300209 -2.897326 0.328552
3.301225 -2.904339 0.328437
3.299196 -2.908994 0.328742
3.298182 -2.914431 0.328907
3.296152 -2.919073 0.329211
3.294123 -2.923708 0.329516
3.292094 -2.928335 0.329820
3.290064 -2.932955 0.330125
3.287020 -2.936769 0.330569
3.284990 -2.941373 0.330874
3.282961 -2.945968 0.331178
3.280931 -2.950557 0.331483
3.279917 -2.955944 0.331647
3.278903 -2.961327 0.331812
3.279920 -2.968325 0.331697
3.281951 -2.976138 0.331441
3.289060 -2.988023 0.330487
3.310383 -3.011344 0.327575
3.335766 -3.038009 0.324103
3.345921 -3.052488 0.322730
3.356075 -3.067003 0.321357
3.364199 -3.079911 0.320263
3.371307 -3.092025 0.319310
3.381462 -3.106642 0.317937
3.387555 -3.117985 0.317124
3.392633 -3.128521 0.316450
3.398726 -3.139906 0.315637
3.402788 -3.149647 0.315103
3.407866 -3.160238 0.314430
3.412944 -3.170847 0.313757
3.418022 -3.181475 0.313083
3.424115 -3.192963 0.312270
3.431224 -3.205315 0.311318
3.435286 -3.215159 0.310785
3.439349 -3.225019 0.310252
3.442396 -3.234045 0.309858
3.445443 -3.243082 0.309465
3.448490 -3.252130 0.309071
3.449507 -3.259482 0.308958
3.449508 -3.265981 0.308983
3.449509 -3.272481 0.309009
3.447480 -3.277262 0.309315
3.446466 -3.282897 0.309480
3.445452 -3.288528 0.309646
3.442407 -3.292426 0.310090
3.438347 -3.295445 0.310675
3.435303 -3.299319 0.311119
3.433273 -3.304052 0.311424
3.429213 -3.307033 0.312009
3.426168 -3.310873 0.312453
3.424139 -3.315578 0.312758
3.421094 -3.319398 0.313203
3.419065 -3.324086 0.313507
3.418051 -3.329649 0.313673
3.418052 -3.336091 0.313698
3.413992 -3.338993 0.314282
3.541355 2.940216 0.264610
3.556571 2.946837 0.262411
3.565702 2.948097 0.261103
3.569760 2.944909 0.260536
3.573819 2.941707 0.259970
3.581935 2.942006 0.258810
3.587008 2.939643 0.258095
3.595124 2.939888 0.256936
3.602225 2.939230 0.255924
3.609327 2.938546 0.254913
3.618457 2.939576 0.253606
3.624545 2.937969 0.252743
3.633675 2.938937 0.251436
3.651934 2.947650 0.248795
3.671208 2.957158 0.246005
3.688453 2.964875 0.243512
3.705697 2.972529 0.241020
3.722942 2.980120 0.238528
3.736130 2.984229 0.236628
3.754389 2.992554 0.233988
3.779749 3.006772 0.230311
3.802066 3.018348 0.227079
3.820325 3.026454 0.224440
3.834527 3.031110 0.222394
3.847715 3.034871 0.220496
3.891332 3.063841 0.214153
3.906549 3.069130 0.211960
3.915679 3.069334 0.210656
3.919738 3.065322 0.210092
3.923797 3.061296 0.209529
3.929884 3.058921 0.208670
3.938000 3.058185 0.207514
3.948145 3.059077 0.206062
3.940032 3.045044 0.207277
3.926847 3.026914 0.209231
3.906562 3.003068 0.212223
3.909606 2.998193 0.211808
3.922794 3.001503 0.209912
3.939025 3.007220 0.207572
3.953227 3.011245 0.205528
3.963372 3.011961 0.204077
3.979603 3.017514 0.201738
4.012216 2.252574 0.200146
4.012217 2.245041 0.200176
4.011204 2.236894 0.200353
4.011206 2.229364 0.200383
4.011207 2.221833 0.200413
4.011209 2.214302 0.200443
4.011210 2.206771 0.200473
4.010197 2.198635 0.200650
4.010199 2.191106 0.200680
4.009186 2.182976 0.200857
4.008173 2.174849 0.201034
4.008175 2.167324 0.201064
4.008176 2.159799 0.201094
4.008178 2.152274 0.201124
4.007165 2.144156 0.201301
4.006152 2.136043 0.201478
4.006153 2.128521 0.201508
4.005140 2.120413 0.201685
4.005142 2.112893 0.201715
4.005143 2.105373 0.201745
4.004130 2.097273 0.201922
4.004132 2.089755 0.201952
4.004133 2.082237 0.201982
4.003120 2.074144 0.202159
4.002107 2.066054 0.202336
4.002109 2.058540 0.202365
4.002110 2.051026 0.202395
4.001098 2.042944 0.202572
4.001099 2.035431 0.202602
4.000086 2.027355 0.202779
3.999073 2.019282 0.202956
3.999075 2.011773 0.202986
3.998061 2.003706 0.203163
3.998063 1.996199 0.203193
3.998064 1.988692 0.203223
3.997052 1.980632 0.203399
3.997053 1.973127 0.203429
3.996040 1.965073 0.203606
3.996042 1.957570 0.203636
3.996043 1.950067 0.203666
3.995030 1.942020 0.203843
3.995032 1.934519 0.203872
3.996048 1.927558 0.203755
3.995035 1.919516 0.203932
3.995036 1.912015 0.203962
3.994023 1.903979 0.204139
3.994025 1.896480 0.204169
3.994026 1.888980 0.204198
3.994028 1.881481 0.204228
3.994029 1.873982 0.204258
3.993016 1.865957 0.204435
3.993018 1.858459 0.204465
3.993019 1.850962 0.204494
3.993021 1.843464 0.204524
3.993022 1.835967 0.204554
3.993024 1.828469 0.204584
3.994039 1.821486 0.204467
3.993027 1.813474 0.204643
3.993028 1.805977 0.204673
3.993029 1.798479 0.204703
3.993031 1.790982 0.204733
3.992018 1.782979 0.204910
3.993034 1.775986 0.204793
3.993035 1.768489 0.204822
3.993037 1.760991 0.204852
3.993038 1.753494 0.204882
3.994054 1.746492 0.204765
3.994056 1.738993 0.204795
3.994057 1.731493 0.204825
3.994058 1.723994 0.204854
3.994060 1.716494 0.204884
3.994061 1.708995 0.204914
3.994063 1.701496 0.204944
3.994064 1.693996 0.204974
3.993051 1.686016 0.205150
3.993053 1.678519 0.205180
3.993054 1.671021 0.205210
3.993056 1.663523 0.205240
3.992042 1.655552 0.205416
3.992044 1.648057 0.205446
3.991031 1.640091 0.205623
3.991033 1.632597 0.205652
3.990020 1.624637 0.205829
3.990021 1.617145 0.205859
3.989008 1.609191 0.206035
3.990024 1.602161 0.205918
3.990026 1.594669 0.205948
3.990027 1.587177 0.205978
3.990028 1.579685 0.206008
3.991044 1.572647 0.205891
3.991046 1.565153 0.205921
3.992062 1.558108 0.205804
3.993078 1.551060 0.205687
3.993079 1.543563 0.205717
3.994095 1.536509 0.205600
3.995111 1.529452 0.205483
3.995112 1.521951 0.205513
3.996128 1.514888 0.205396
3.997144 1.507821 0.205280
3.998160 1.500751 0.205163
3.999176 1.493677 0.205046
3.999178 1.486168 0.205076
4.000193 1.479089 0.204959
4.001209 1.472006 0.204843
4.002225 1.464919 0.204726
4.002226 1.457404 0.204756
4.003242 1.450312 0.204639
4.004258 1.443216 0.204523
4.004259 1.435698 0.204553
4.005275 1.428596 0.204436
4.005277 1.421076 0.204466
4.006293 1.413969 0.204350
4.007309 1.406858 0.204233
4.008325 1.399743 0.204116
4.008326 1.392218 0.204146
4.008328 1.384693 0.204176
4.009343 1.377571 0.204060
4.009345 1.370044 0.204090
4.009346 1.362516 0.204120
4.010362 1.355387 0.204003
4.010364 1.347858 0.204033
4.011379 1.340723 0.203917
4.011381 1.333192 0.203947
4.011382 1.325661 0.203977
4.011384 1.318130 0.204007
4.012400 1.310986 0.203890
4.012401 1.303453 0.203920
4.013417 1.296303 0.203804
4.014433 1.289150 0.203687
4.015449 1.281992 0.203571
4.015451 1.274454 0.203601
4.017481 1.267667 0.203338
4.019511 1.260872 0.203076
4.021542 1.254070 0.202813
4.022557 1.246890 0.202697
4.022559 1.239339 0.202727
4.022560 1.231788 0.202757
4.022562 1.224237 0.202787
4.023578 1.217048 0.202671
4.023579 1.209495 0.202701
4.024595 1.202300 0.202584
4.025611 1.195102 0.202468
4.025612 1.187546 0.202498
4.026629 1.180342 0.202382
4.027644 1.173135 0.202266
4.028660 1.165924 0.202150
4.029676 1.158709 0.202034
4.030692 1.151491 0.201918
4.031708 1.144269 0.201801
4.031709 1.136701 0.201832
4.032726 1.129473 0.201715
4.032727 1.121904 0.201746
4.033743 1.114670 0.201629
4.033744 1.107099 0.201660
4.034760 1.099860 0.201544
4.035776 1.092618 0.201428
4.036792 1.085371 0.201312
4.037808 1.078122 0.201196
4.037809 1.070543 0.201226
4.038825 1.063287 0.201110
4.039841 1.056028 0.200994
4.040857 1.048765 0.200878
4.041873 1.041499 0.200762
4.041875 1.033912 0.200792
4.041876 1.026326 0.200822
4.042892 1.019052 0.200706
4.042893 1.011464 0.200737
4.041880 1.003567 0.200913
4.042896 0.996287 0.200797
4.041883 0.988394 0.200973
4.041885 0.980808 0.201003
4.041886 0.973221 0.201033
4.041888 0.965635 0.201064
4.040875 0.957751 0.201240
4.040876 0.950166 0.201270
4.040878 0.942582 0.201300
4.040879 0.934997 0.201330
4.040881 0.927413 0.201360
4.041897 0.920117 0.201245
4.041898 0.912530 0.201275
4.041900 0.904944 0.201305
4.042916 0.897640 0.201189
4.043931 0.890333 0.201073
4.043933 0.882743 0.201104
4.044949 0.875430 0.200988
4.045965 0.868114 0.200872
4.045967 0.860520 0.200902
4.046982 0.853198 0.200787
4.046984 0.845602 0.200817
4.048000 0.838275 0.200701
4.048001 0.830677 0.200731
4.049017 0.823344 0.200616
4.049019 0.815745 0.200646
4.049020 0.808145 0.200676
4.050036 0.800805 0.200561
4.050037 0.793203 0.200591
4.050039 0.785602 0.200621
4.050040 0.778001 0.200651
4.049027 0.770148 0.200827
4.049029 0.762549 0.200857
4.049030 0.754950 0.200888
4.049032 0.747350 0.200918
4.049033 0.739751 0.200948
4.048021 0.731910 0.201124
4.048022 0.724312 0.201154
4.048024 0.716715 0.201185
4.048025 0.709117 0.201215
4.048026 0.701520 0.201245
4.048028 0.693922 0.201275
4.049044 0.686556 0.201160
4.049045 0.678956 0.201190
4.050061 0.671584 0.201074
4.051077 0.664209 0.200959
4.052093 0.656829 0.200843
4.053109 0.649446 0.200728
4.053111 0.641839 0.200758
4.054127 0.634451 0.200643
4.055142 0.627058 0.200527
4.056158 0.619662 0.200412
4.057174 0.612262 0.200297
4.058190 0.604859 0.200181
4.059206 0.597452 0.200066
4.070447 0.179646 0.200134
4.069434 0.171903 0.200310
4.068421 0.164163 0.200486
4.067408 0.156427 0.200661
4.066396 0.148695 0.200837
4.065382 0.140966 0.201012
4.063355 0.133145 0.201333
4.063356 0.125520 0.201363
4.062343 0.117803 0.201539
4.061330 0.110089 0.201714
4.059303 0.102290 0.202035
4.058290 0.094586 0.202210
4.057277 0.086885 0.202386
4.056264 0.079188 0.202561
4.054237 0.071414 0.202882
4.053224 0.063726 0.203057
4.051196 0.055964 0.203378
4.050183 0.048286 0.203553
4.049170 0.040611 0.203729
4.047143 0.032868 0.204049
4.046130 0.025202 0.204224
4.044102 0.017472 0.204545
4.043089 0.009816 0.204720
4.042076 0.002163 0.204895
4.040049 -0.005548 0.205216
4.039035 -0.013192 0.205391
4.038022 -0.020831 0.205566
4.037009 -0.028467 0.205741
4.035997 -0.036100 0.205916
4.034984 -0.043728 0.206092
4.034985 -0.051302 0.206122
4.033972 -0.058925 0.206297
4.032959 -0.066544 0.206472
4.031946 -0.074160 0.206647
4.030933 -0.081772 0.206822
4.030934 -0.089338 0.206852
4.029921 -0.096944 0.207027
4.028908 -0.104547 0.207202
4.027896 -0.112146 0.207377
4.026883 -0.119741 0.207552
4.025869 -0.127333 0.207727
4.024856 -0.134920 0.207902
4.023843 -0.142505 0.208077
4.022830 -0.150085 0.208252
4.021817 -0.157662 0.208427
4.020804 -0.165235 0.208602
4.019792 -0.172804 0.208777
4.019793 -0.180350 0.208807
4.018780 -0.187914 0.208982
4.017767 -0.195474 0.209157
4.017768 -0.203016 0.209187
4.016755 -0.210570 0.209362
4.016757 -0.218110 0.209392
4.015744 -0.225659 0.209567
4.015745 -0.233198 0.209597
4.015747 -0.240736 0.209627
4.014734 -0.248278 0.209802
4.014735 -0.255814 0.209831
4.014737 -0.263350 0.209861
4.014738 -0.270887 0.209891
4.013725 -0.278419 0.210066
4.012712 -0.285948 0.210241
4.012713 -0.293480 0.210271
4.011700 -0.301003 0.210446
4.010687 -0.308523 0.210620
4.008660 -0.316025 0.210940
4.007647 -0.323535 0.211115
4.005619 -0.331025 0.211434
4.004606 -0.338526 0.211609
4.002579 -0.346002 0.211928
4.001566 -0.353494 0.212103
4.000553 -0.360981 0.212277
3.998525 -0.368439 0.212597
3.997512 -0.375918 0.212771
3.998528 -0.383453 0.212656
3.997515 -0.390928 0.212831
3.997516 -0.398433 0.212861
3.997518 -0.405938 0.212891
3.997519 -0.413443 0.212920
3.997521 -0.420948 0.212950
3.997522 -0.428453 0.212980
3.997524 -0.435957 0.213010
3.997525 -0.443462 0.213040
3.997527 -0.450967 0.213070
3.997528 -0.458472 0.213100
3.997530 -0.465977 0.213129
3.997531 -0.473482 0.213159
3.997533 -0.480987 0.213189
3.996520 -0.488436 0.213363
3.996521 -0.495939 0.213393
3.995508 -0.503383 0.213568
3.995510 -0.510884 0.213598
3.994497 -0.518322 0.213772
3.994498 -0.525821 0.213802
3.994499 -0.533321 0.213832
3.993486 -0.540751 0.214006
3.993488 -0.548249 0.214036
3.992475 -0.555674 0.214210
3.992476 -0.563169 0.214240
3.992477 -0.570665 0.214270
3.992479 -0.578161 0.214300
3.991466 -0.585576 0.214474
3.991467 -0.593070 0.214504
3.990454 -0.600480 0.214678
3.989441 -0.607887 0.214852
3.987414 -0.615202 0.215171
3.986401 -0.622599 0.215345
3.986403 -0.630084 0.215375
3.984375 -0.637383 0.215694
3.984376 -0.644863 0.215724
3.983363 -0.652248 0.215898
3.982350 -0.659628 0.216072
3.980323 -0.666905 0.216390
3.979309 -0.674276 0.216565
3.978296 -0.681643 0.216739
3.977283 -0.689007 0.216913
3.975256 -0.696260 0.217231
3.974243 -0.703614 0.217405
3.973230 -0.710965 0.217579
3.971202 -0.718199 0.217898
3.969174 -0.725426 0.218216
3.967147 -0.732645 0.218535
3.966134 -0.739975 0.218709
3.964106 -0.747181 0.219027
3.963093 -0.754503 0.219201
3.961066 -0.761696 0.219519
3.961067 -0.769134 0.219549
3.960054 -0.776444 0.219723
3.959041 -0.783751 0.219897
3.958028 -0.791054 0.220070
3.958029 -0.798486 0.220100
3.956002 -0.805648 0.220418
3.956003 -0.813077 0.220448
3.954990 -0.820367 0.220621
3.954992 -0.827794 0.220651
3.953979 -0.835078 0.220825
3.952966 -0.842359 0.220998
3.951952 -0.849636 0.221172
3.951954 -0.857057 0.221202
3.949926 -0.864178 0.221520
3.949928 -0.871596 0.221549
3.948915 -0.878860 0.221723
3.947902 -0.886120 0.221897
3.946889 -0.893377 0.222070
3.945875 -0.900630 0.222244
3.944862 -0.907879 0.222418
3.943849 -0.915124 0.222591
3.942836 -0.922366 0.222765
3.942837 -0.929771 0.222794
3.941824 -0.937007 0.222968
3.940811 -0.944239 0.223142
3.939798 -0.951468 0.223315
3.938785 -0.958693 0.223489
3.937772 -0.965914 0.223662
3.937773 -0.973310 0.223692
3.936760 -0.980526 0.223865
3.936762 -0.987920 0.223895
3.935749 -0.995130 0.224068
3.934736 -1.002337 0.224242
3.933723 -1.009539 0.224415
3.933724 -1.016928 0.224444
3.932711 -1.024125 0.224618
3.931698 -1.031318 0.224791
3.930685 -1.038508 0.224965
3.930686 -1.045891 0.224994
3.929673 -1.053075 0.225168
3.928660 -1.060256 0.225341
3.927647 -1.067433 0.225514
3.926634 -1.074606 0.225688
3.924606 -1.081570 0.226005
3.923593 -1.088734 0.226178
3.921566 -1.095684 0.226496
3.920552 -1.102839 0.226669
3.918525 -1.109777 0.226986
3.918526 -1.117137 0.227015
3.916499 -1.124064 0.227333
3.915486 -1.131202 0.227506
3.914472 -1.138336 0.227679
3.914474 -1.145689 0.227708
3.912446 -1.152594 0.228025
3.912448 -1.159943 0.228055
3.912449 -1.167292 0.228084
3.911436 -1.174412 0.228257
3.911437 -1.181760 0.228286
3.911439 -1.189107 0.228315
3.911440 -1.196455 0.228345
3.911442 -1.203802 0.228374
3.910428 -1.210911 0.228547
3.911445 -1.218497 0.228432
3.910431 -1.225602 0.228605
3.911447 -1.233193 0.228491
3.911449 -1.240540 0.228520
3.912465 -1.248136 0.228405
3.911452 -1.255235 0.228578
3.911453 -1.262583 0.228608
3.909425 -1.269422 0.228924
3.908412 -1.276511 0.229097
3.907399 -1.283595 0.229270
3.906386 -1.290675 0.229443
3.906388 -1.298014 0.229473
3.905375 -1.305089 0.229646
3.905376 -1.312425 0.229675
3.904363 -1.319495 0.229848
3.903350 -1.326561 0.230021
3.901322 -1.333352 0.230337
3.901324 -1.340681 0.230366
3.901325 -1.348010 0.230396
3.900312 -1.355063 0.230568
3.900313 -1.362390 0.230598
3.898286 -1.369158 0.230914
3.897272 -1.376199 0.231087
3.896259 -1.383237 0.231260
3.894231 -1.389986 0.231576
3.892204 -1.396728 0.231893
3.888147 -1.402884 0.232497
3.883076 -1.408733 0.233244
3.884092 -1.416322 0.233129
3.855686 -1.415367 0.237181
3.751188 -1.392066 0.252005
3.736986 -1.394943 0.254044
3.724812 -1.398369 0.255796
3.710610 -1.401146 0.257834
3.695393 -1.403567 0.260016
3.679161 -1.405627 0.262342
3.661915 -1.407320 0.264810
3.648728 -1.410188 0.266705
3.635540 -1.413008 0.268599
3.624381 -1.416407 0.270205
3.615251 -1.420395 0.271524
3.606121 -1.424349 0.272844
3.596992 -1.428270 0.274163
3.588877 -1.432479 0.275338
3.580761 -1.436658 0.276513
3.573661 -1.441132 0.277545
3.566560 -1.445579 0.278576
3.558445 -1.449673 0.279751
3.551344 -1.454067 0.280782
3.545258 -1.458767 0.281670
3.539172 -1.463445 0.282558
3.535115 -1.468771 0.283158
3.531058 -1.474083 0.283758
3.530045 -1.480397 0.283928
3.528017 -1.486366 0.284242
3.527004 -1.492671 0.284412
3.527005 -1.499317 0.284438
3.528021 -1.506310 0.284321
3.529037 -1.513306 0.284204
3.530053 -1.520306 0.284087
3.532083 -1.527662 0.283827
3.533099 -1.534671 0.283710
3.535130 -1.542040 0.283449
3.537160 -1.549416 0.283189
3.538176 -1.556440 0.283072
3.538177 -1.563106 0.283099
3.540208 -1.570499 0.282839
3.541224 -1.577534 0.282722
3.542239 -1.584573 0.282605
3.543255 -1.591615 0.282488
3.543257 -1.598291 0.282515
3.542243 -1.604594 0.282684
3.542245 -1.611268 0.282711
3.540217 -1.617189 0.283024
3.539204 -1.623481 0.283194
3.537176 -1.629389 0.283507
3.536162 -1.635672 0.283677
3.535149 -1.641951 0.283847
3.533121 -1.647841 0.284160
3.532108 -1.654111 0.284330
3.530080 -1.659988 0.284643
3.529067 -1.666248 0.284812
3.527039 -1.672112 0.285125
3.526026 -1.678364 0.285295
3.525013 -1.684611 0.285465
3.522985 -1.690457 0.285778
3.521971 -1.696695 0.285947
3.520958 -1.702930 0.286117
3.519945 -1.709160 0.286286
3.517917 -1.714982 0.286599
3.516904 -1.721203 0.286769
3.514876 -1.727012 0.287082
3.512848 -1.732813 0.287394
3.510820 -1.738607 0.287707
3.509807 -1.744808 0.287876
3.507779 -1.750589 0.288189
3.505751 -1.756362 0.288502
3.503723 -1.762128 0.288814
3.502710 -1.768309 0.288984
3.499667 -1.773637 0.289439
3.497640 -1.779381 0.289752
3.495612 -1.785117 0.290064
3.495613 -1.791706 0.290091
3.492571 -1.796999 0.290546
3.490543 -1.802715 0.290858
3.488515 -1.808423 0.291171
3.486487 -1.814124 0.291483
3.484459 -1.819818 0.291795
3.481417 -1.825063 0.292251
3.478374 -1.830298 0.292706
3.476346 -1.835965 0.293018
3.473304 -1.841179 0.293473
3.471276 -1.846830 0.293786
3.468234 -1.852024 0.294241
3.464177 -1.856754 0.294839
3.461134 -1.861923 0.295294
3.457077 -1.866626 0.295892
3.453020 -1.871314 0.296490
3.448963 -1.875986 0.297088
3.443891 -1.880183 0.297829
3.439834 -1.884825 0.298426
3.433748 -1.888521 0.299310
3.428676 -1.892662 0.300051
3.423604 -1.896785 0.300791
3.417518 -1.900419 0.301674
3.412446 -1.904502 0.302415
3.406360 -1.908093 0.303298
3.399259 -1.911186 0.304324
3.393173 -1.914731 0.305207
3.386072 -1.917773 0.306233
3.377957 -1.920308 0.307402
3.370856 -1.923297 0.308427
3.363755 -1.926260 0.309453
3.355639 -1.928710 0.310621
3.347524 -1.931131 0.311790
3.339408 -1.933521 0.312958
3.330278 -1.935389 0.314269
3.323177 -1.938214 0.315294
3.315062 -1.940515 0.316461
3.307961 -1.943286 0.317486
3.299845 -1.945530 0.318654
3.292744 -1.948247 0.319678
3.285643 -1.950938 0.320703
3.279557 -1.954109 0.321584
3.274485 -1.957765 0.322323
3.269414 -1.961403 0.323062
3.264342 -1.965022 0.323800
3.260285 -1.969135 0.324396
3.256227 -1.973234 0.324991
3.251156 -1.976802 0.325730
3.248113 -1.981388 0.326182
3.244056 -1.985443 0.326778
3.242028 -1.990527 0.327088
3.238985 -1.995080 0.327540
3.233914 -1.998570 0.328278
3.229856 -2.002569 0.328874
3.224785 -2.006023 0.329611
3.220727 -2.009991 0.330207
3.218699 -2.015010 0.330516
3.219715 -2.021629 0.330398
3.218702 -2.027177 0.330565
3.222761 -2.035416 0.330018
3.229865 -2.045294 0.329043
3.726009 -2.330840 0.259359
3.735142 -2.342784 0.258103
3.741231 -2.353111 0.257275
3.744276 -2.361803 0.256875
3.746307 -2.369953 0.256618
3.744279 -2.375887 0.256931
3.743266 -2.382372 0.257102
3.741238 -2.388293 0.257415
3.739210 -2.394207 0.257728
3.737182 -2.400114 0.258042
3.735154 -2.406013 0.258355
3.731097 -2.410771 0.258953
3.728055 -2.416083 0.259408
3.726027 -2.421954 0.259721
3.723999 -2.427818 0.260034
3.724000 -2.434823 0.260062
3.722987 -2.441252 0.260233
3.722988 -2.448256 0.260261
3.720961 -2.454099 0.260573
3.720962 -2.461099 0.260601
3.718934 -2.466931 0.260914
3.718936 -2.473927 0.260942
3.718937 -2.480923 0.260970
3.718938 -2.487919 0.260998
3.718940 -2.494915 0.261025
3.717926 -2.501318 0.261196
3.717928 -2.508312 0.261224
3.717929 -2.515306 0.261251
3.717931 -2.522300 0.261279
3.716917 -2.528694 0.261449
3.716919 -2.535686 0.261477
3.715905 -2.542074 0.261647
3.714892 -2.548459 0.261818
3.713879 -2.554839 0.261988
3.712866 -2.561217 0.262158
3.711852 -2.567590 0.262328
3.710839 -2.573960 0.262498
3.709826 -2.580326 0.262669
3.709827 -2.587305 0.262696
3.708814 -2.593666 0.262866
3.707801 -2.600022 0.263037
3.708817 -2.607620 0.262922
3.709833 -2.615222 0.262807
3.710849 -2.622827 0.262693
3.710850 -2.629808 0.262721
3.710851 -2.636789 0.262748
3.707809 -2.641875 0.263203
3.700708 -2.644416 0.264227
3.692592 -2.646296 0.265393
3.681433 -2.646234 0.266986
3.669259 -2.645493 0.268721
3.600266 -2.608816 0.278423
3.554609 -2.586672 0.284852
3.535333 -2.581120 0.287582
3.520115 -2.578084 0.289742
3.505911 -2.575640 0.291760
3.489678 -2.571845 0.294062
3.471417 -2.566686 0.296648
3.453155 -2.561460 0.299235
3.431849 -2.554201 0.302247
3.416631 -2.550810 0.304406
3.405471 -2.550000 0.305996
3.393297 -2.548489 0.307728
3.383152 -2.548259 0.309175
3.373007 -2.547992 0.310622
3.362862 -2.547689 0.312069
3.351702 -2.546679 0.313658
3.340542 -2.545629 0.315247
3.329383 -2.544538 0.316836
3.319238 -2.544081 0.318282
3.308078 -2.542911 0.319871
3.299962 -2.543733 0.321033
3.293876 -2.545886 0.321910
3.288804 -2.548698 0.322646
3.285761 -2.552858 0.323097
3.284748 -2.558378 0.323263
3.283734 -2.563895 0.323430
3.286779 -2.572163 0.323029
3.291854 -2.581825 0.322343
3.294899 -2.590120 0.321941
3.300988 -2.600510 0.321114
3.306062 -2.610225 0.320428
3.308093 -2.617864 0.320169
3.311138 -2.626210 0.319768
3.312154 -2.633164 0.319650
3.312155 -2.639417 0.319675
3.312156 -2.645671 0.319700
3.312157 -2.651924 0.319725
3.312159 -2.658178 0.319750
3.312160 -2.664431 0.319775
3.311146 -2.669972 0.319942
3.311148 -2.676224 0.319967
3.310134 -2.681758 0.320133
3.311150 -2.688727 0.320016
3.313180 -2.696419 0.319757
3.317240 -2.705564 0.319214
3.320285 -2.714000 0.318813
3.323331 -2.722446 0.318412
3.325361 -2.730176 0.318154
3.327391 -2.737913 0.317895
3.329422 -2.745657 0.317636
3.332467 -2.754143 0.317235
3.333483 -2.761169 0.317118
3.336528 -2.769673 0.316718
3.336529 -2.775970 0.316743
3.337545 -2.783009 0.316626
3.337547 -2.789309 0.316651
3.338562 -2.796353 0.316534
3.338564 -2.802655 0.316559
3.338565 -2.808957 0.316584
3.337552 -2.814508 0.316751
3.336538 -2.820056 0.316918
3.333495 -2.824092 0.317368
3.330453 -2.828118 0.317819
3.326395 -2.831374 0.318411
3.321323 -2.833857 0.319145
3.318281 -2.837843 0.319596
3.314223 -2.841056 0.320188
3.311181 -2.845018 0.320638
3.308138 -2.848969 0.321088
3.306110 -2.853678 0.321396
3.303067 -2.857609 0.321847
3.302054 -2.863073 0.322013
3.301040 -2.868534 0.322180
3.300027 -2.873991 0.322346
3.300028 -2.880223 0.322371
3.300029 -2.886454 0.322396
3.301045 -2.893467 0.322279
3.301046 -2.899700 0.322304
3.301048 -2.905933 0.322328
3.299019 -2.910592 0.322637
3.298006 -2.916032 0.322803
3.295978 -2.920678 0.323111
3.293950 -2.925316 0.323419
3.290907 -2.929153 0.323869
3.288879 -2.933775 0.324177
3.285836 -2.937591 0.324627
3.284823 -2.942996 0.324793
3.282795 -2.947596 0.325101
3.281781 -2.952992 0.325267
3.280768 -2.958384 0.325433
3.279754 -2.963773 0.325600
3.281785 -2.971586 0.325341
3.283815 -2.979406 0.325083
3.291934 -2.992112 0.323975
3.317301 -3.018702 0.320460
3.341654 -3.044567 0.317087
3.351802 -3.059061 0.315696
3.363979 -3.075232 0.314022
3.372098 -3.088159 0.312915
3.382246 -3.102763 0.311525
3.391379 -3.116579 0.310277
3.398483 -3.128772 0.309311
3.404572 -3.140161 0.308488
3.410661 -3.151573 0.307664
3.414721 -3.161339 0.307124
3.418781 -3.171121 0.306583
3.424870 -3.182592 0.305760
3.428930 -3.192407 0.305220
3.434004 -3.203077 0.304538
3.439079 -3.213766 0.303856
3.442124 -3.222785 0.303458
3.444155 -3.230968 0.303201
3.447200 -3.240007 0.302802
3.449231 -3.248207 0.302545
3.451262 -3.256414 0.302288
3.451263 -3.262922 0.302314
3.452279 -3.270284 0.302198
3.451265 -3.275936 0.302366
3.450252 -3.281583 0.302533
3.448224 -3.286366 0.302842
3.448225 -3.292868 0.302867
3.446197 -3.297640 0.303176
3.442140 -3.300670 0.303767
3.440111 -3.305424 0.304076
3.437069 -3.309299 0.304526
3.433011 -3.312291 0.305117
3.428954 -3.315268 0.305708
3.426926 -3.319982 0.306017
3.422868 -3.322934 0.306608
3.419826 -3.326750 0.307057
3.418812 -3.332318 0.307224
3.418814 -3.338766 0.307250
3.410697 -3.338131 0.308406
3.541018 2.941967 0.258069
3.558252 2.950358 0.255544
3.567376 2.951609 0.254220
3.572446 2.949297 0.253497
3.575488 2.945205 0.253073
3.580558 2.942859 0.252350
3.585628 2.940495 0.251626
3.591711 2.938988 0.250753
3.600835 2.940078 0.249430
3.607932 2.939392 0.248407
3.616043 2.939550 0.247233
3.624153 2.939679 0.246061
3.635305 2.942375 0.244438
3.652539 2.950216 0.241915
3.671800 2.959719 0.239093
3.687007 2.965709 0.236870
3.703227 2.972503 0.234499
3.720460 2.980094 0.231977
3.734653 2.985057 0.229905
3.750873 2.991674 0.227534
3.775203 3.005042 0.223964
3.796492 3.015773 0.220843
3.814739 3.023884 0.218173
3.828932 3.028546 0.216103
3.837043 3.028093 0.214932
3.866441 3.045291 0.210613
3.882661 3.051460 0.208244
3.890772 3.050865 0.207074
3.892801 3.045222 0.206803
3.895843 3.040405 0.206383
3.901927 3.038076 0.205513
3.909024 3.036555 0.204493
3.888752 3.012626 0.207519
3.821850 2.950724 0.217438
3.752922 2.887415 0.227656
3.734677 2.865530 0.230381
3.733664 2.857677 0.230558
3.741775 2.857206 0.229388
3.751913 2.858340 0.227918
3.764079 2.861070 0.226148
3.799559 2.882481 0.220934
3.880655 2.940316 0.208979
3.929313 2.971921 0.201819
3.968031 1.988593 0.200160
3.968033 1.981136 0.200190
3.967020 1.973124 0.200368
3.967022 1.965669 0.200398
3.966010 1.957663 0.200576
3.966011 1.950210 0.200606
3.966013 1.942757 0.200635
3.965000 1.934758 0.200814
3.965002 1.927307 0.200843
3.965003 1.919855 0.200873
3.965005 1.912404 0.200903
3.963993 1.904415 0.201081
3.963994 1.896965 0.201111
3.963995 1.889516 0.201140
3.963997 1.882066 0.201170
3.962984 1.874086 0.201348
3.964000 1.867168 0.201229
3.964001 1.859718 0.201259
3.962989 1.851743 0.201437
3.962990 1.844296 0.201467
3.962991 1.836848 0.201496
3.962993 1.829401 0.201526
3.962994 1.821953 0.201556
3.962996 1.814506 0.201585
3.964011 1.807572 0.201466
3.962999 1.799610 0.201644
3.963000 1.792163 0.201674
3.963002 1.784715 0.201704
3.963003 1.777268 0.201733
3.963005 1.769820 0.201763
3.963006 1.762373 0.201792
3.963007 1.754925 0.201822
3.963009 1.747478 0.201852
3.963010 1.740030 0.201881
3.964026 1.733078 0.201762
3.964027 1.725629 0.201792
3.964029 1.718180 0.201822
3.964030 1.710730 0.201851
3.963018 1.702792 0.202029
3.964033 1.695831 0.201910
3.964035 1.688382 0.201940
3.964036 1.680933 0.201970
3.963023 1.673002 0.202148
3.963025 1.665555 0.202178
3.963026 1.658107 0.202207
3.962014 1.650184 0.202385
3.962016 1.642738 0.202415
3.962017 1.635293 0.202444
3.961005 1.627377 0.202622
3.961006 1.619933 0.202652
3.959994 1.612023 0.202830
3.959996 1.604581 0.202860
3.958983 1.596677 0.203038
3.959998 1.589697 0.202919
3.958986 1.581797 0.203097
3.960001 1.574813 0.202978
3.960003 1.567371 0.203008
3.961018 1.560383 0.202889
3.961019 1.552939 0.202918
3.962035 1.545944 0.202800
3.963050 1.538946 0.202681
3.963051 1.531499 0.202711
3.964067 1.524495 0.202592
3.965082 1.517488 0.202473
3.965083 1.510037 0.202503
3.966098 1.503024 0.202384
3.967114 1.496007 0.202266
3.968129 1.488987 0.202147
3.969144 1.481963 0.202028
3.969145 1.474504 0.202058
3.971175 1.467904 0.201791
3.971176 1.460441 0.201821
3.972191 1.453404 0.201702
3.973206 1.446364 0.201584
3.973208 1.438898 0.201613
3.974223 1.431851 0.201495
3.974224 1.424383 0.201524
3.975240 1.417332 0.201406
3.975241 1.409862 0.201436
3.976256 1.402805 0.201317
3.977272 1.395744 0.201199
3.978287 1.388679 0.201080
3.978288 1.381204 0.201110
3.978290 1.373728 0.201140
3.978291 1.366253 0.201169
3.979307 1.359179 0.201051
3.979308 1.351702 0.201081
3.980323 1.344622 0.200962
3.980325 1.337143 0.200992
3.981340 1.330058 0.200874
3.981341 1.322577 0.200903
3.982356 1.315487 0.200785
3.982358 1.308004 0.200815
3.983373 1.300908 0.200696
3.983375 1.293423 0.200726
3.984390 1.286321 0.200608
3.984392 1.278835 0.200638
3.985407 1.271728 0.200519
3.986422 1.264617 0.200401
3.988451 1.257877 0.200135
3.989466 1.250757 0.200017
4.021129 0.053847 0.200233
4.020117 0.046218 0.200410
4.019104 0.038593 0.200587
4.017078 0.030900 0.200911
4.016066 0.023284 0.201088
4.015053 0.015673 0.201265
4.013027 0.007998 0.201588
4.012015 0.000395 0.201765
4.011003 -0.007204 0.201942
4.008976 -0.014860 0.202265
4.007964 -0.022449 0.202442
4.006952 -0.030035 0.202619
4.006953 -0.037562 0.202649
4.005941 -0.045143 0.202825
4.004928 -0.052720 0.203002
4.003916 -0.060293 0.203179
4.003918 -0.067814 0.203209
4.002905 -0.075382 0.203385
4.001893 -0.082946 0.203562
4.000880 -0.090506 0.203739
3.999868 -0.098062 0.203915
3.998856 -0.105615 0.204092
3.998857 -0.113127 0.204122
3.997845 -0.120674 0.204298
3.996833 -0.128218 0.204475
3.995820 -0.135757 0.204651
3.994808 -0.143293 0.204828
3.993795 -0.150826 0.205004
3.991769 -0.158380 0.205327
3.991771 -0.165879 0.205357
3.990758 -0.173400 0.205534
3.990760 -0.180898 0.205564
3.989747 -0.188414 0.205740
3.988735 -0.195926 0.205917
3.987722 -0.203434 0.206093
3.986710 -0.210938 0.206269
3.986712 -0.218428 0.206299
3.985699 -0.225927 0.206475
3.984687 -0.233423 0.206652
3.984688 -0.240909 0.206682
3.984690 -0.248396 0.206711
3.984691 -0.255882 0.206741
3.984693 -0.263368 0.206771
3.983681 -0.270853 0.206947
3.983682 -0.278337 0.206977
3.982669 -0.285816 0.207153
3.981657 -0.293291 0.207330
3.980645 -0.300762 0.207506
3.979632 -0.308230 0.207682
3.978620 -0.315693 0.207858
3.977608 -0.323154 0.208035
3.975581 -0.330593 0.208357
3.974569 -0.338044 0.208533
3.972543 -0.345470 0.208856
3.971530 -0.352912 0.209032
3.970518 -0.360350 0.209208
3.970520 -0.367810 0.209238
3.968493 -0.375214 0.209561
3.969508 -0.382701 0.209444
3.968496 -0.390128 0.209620
3.968497 -0.397585 0.209650
3.968499 -0.405042 0.209679
3.968500 -0.412498 0.209709
3.968502 -0.419955 0.209739
3.968503 -0.427412 0.209768
3.968505 -0.434869 0.209798
3.969520 -0.442370 0.209681
3.968508 -0.449782 0.209857
3.969523 -0.457288 0.209741
3.968510 -0.464696 0.209917
3.969526 -0.472205 0.209800
3.968513 -0.479610 0.209976
3.968515 -0.487066 0.210005
3.967503 -0.494466 0.210181
3.967504 -0.501920 0.210211
3.966492 -0.509314 0.210387
3.966493 -0.516767 0.210417
3.965481 -0.524155 0.210593
3.965482 -0.531606 0.210622
3.964470 -0.538989 0.210798
3.964471 -0.546438 0.210828
3.963459 -0.553815 0.211004
3.963460 -0.561262 0.211033
3.963461 -0.568710 0.211063
3.962449 -0.576079 0.211239
3.961437 -0.583445 0.211415
3.961438 -0.590889 0.211444
3.960426 -0.598249 0.211620
3.959414 -0.605605 0.211796
3.958401 -0.612958 0.211972
3.956375 -0.620218 0.212294
3.956376 -0.627653 0.212323
3.955364 -0.634994 0.212499
3.954351 -0.642332 0.212675
3.953339 -0.649666 0.212850
3.952327 -0.656997 0.213026
3.951314 -0.664324 0.213202
3.951316 -0.671749 0.213231
3.949289 -0.678966 0.213553
3.948277 -0.686282 0.213729
3.946251 -0.693486 0.214051
3.946252 -0.700902 0.214080
3.945240 -0.708207 0.214256
3.943213 -0.715395 0.214577
3.941187 -0.722575 0.214899
3.938147 -0.729631 0.215367
3.937135 -0.736913 0.215542
3.936122 -0.744192 0.215718
3.934096 -0.751344 0.216039
3.933084 -0.758614 0.216215
3.932071 -0.765879 0.216390
3.930045 -0.773013 0.216712
3.930046 -0.780400 0.216741
3.929034 -0.787654 0.216917
3.929035 -0.795039 0.216946
3.927009 -0.802153 0.217267
3.927010 -0.809533 0.217297
3.925998 -0.816775 0.217472
3.926000 -0.824154 0.217501
3.924987 -0.831390 0.217677
3.924988 -0.838767 0.217706
3.923976 -0.845998 0.217881
3.922964 -0.853225 0.218057
3.921951 -0.860448 0.218232
3.921953 -0.867820 0.218261
3.920940 -0.875037 0.218437
3.919928 -0.882251 0.218612
3.917901 -0.889304 0.218933
3.917903 -0.896668 0.218962
3.916891 -0.903871 0.219137
3.915878 -0.911070 0.219313
3.914866 -0.918265 0.219488
3.914867 -0.925624 0.219517
3.912841 -0.932645 0.219838
3.911828 -0.939829 0.220013
3.910816 -0.947010 0.220188
3.910817 -0.954361 0.220218
3.909805 -0.961536 0.220393
3.909806 -0.968886 0.220422
3.908794 -0.976055 0.220597
3.907781 -0.983221 0.220772
3.906769 -0.990383 0.220947
3.906770 -0.997727 0.220976
3.905758 -1.004883 0.221151
3.905760 -1.012225 0.221181
3.904747 -1.019376 0.221356
3.903735 -1.026524 0.221531
3.902722 -1.033667 0.221705
3.901710 -1.040807 0.221880
3.900697 -1.047943 0.222055
3.899685 -1.055076 0.222230
3.898672 -1.062204 0.222405
3.897660 -1.069329 0.222580
3.896647 -1.076451 0.222755
3.894621 -1.083361 0.223076
3.892595 -1.090263 0.223396
3.891582 -1.097370 0.223571
3.890570 -1.104473 0.223746
3.889557 -1.111572 0.223921
3.888545 -1.118667 0.224095
3.887532 -1.125759 0.224270
3.885506 -1.132626 0.224590
3.885508 -1.139931 0.224620
3.884495 -1.147012 0.224794
3.884496 -1.154315 0.224823
3.883484 -1.161390 0.224998
3.883486 -1.168691 0.225027
3.883487 -1.175993 0.225056
3.883488 -1.183294 0.225085
3.882476 -1.190360 0.225260
3.883491 -1.197896 0.225143
3.882479 -1.204959 0.225318
3.883494 -1.212499 0.225201
3.882482 -1.219557 0.225376
3.883497 -1.227102 0.225259
3.883498 -1.234403 0.225288
3.884514 -1.241953 0.225172
3.883501 -1.249006 0.225346
3.883503 -1.256307 0.225375
3.881476 -1.263100 0.225696
3.881478 -1.270398 0.225725
3.879451 -1.277180 0.226045
3.879453 -1.284474 0.226074
3.878440 -1.291506 0.226248
3.876414 -1.298272 0.226568
3.877429 -1.305825 0.226452
3.875403 -1.312582 0.226772
3.875404 -1.319868 0.226801
3.873378 -1.326613 0.227121
3.873379 -1.333896 0.227150
3.873381 -1.341179 0.227179
3.873382 -1.348462 0.227208
3.872370 -1.355466 0.227382
3.871357 -1.362467 0.227556
3.869331 -1.369183 0.227876
3.869332 -1.376458 0.227905
3.867306 -1.383163 0.228225
3.865280 -1.389860 0.228545
3.861225 -1.395971 0.229155
3.855143 -1.401485 0.230056
3.856159 -1.409028 0.229940
3.813577 -1.403900 0.236075
3.733480 -1.387644 0.247588
3.729426 -1.393477 0.248198
3.719288 -1.397494 0.249679
3.703067 -1.399662 0.252033
3.686846 -1.401770 0.254386
3.669611 -1.403512 0.256884
3.652376 -1.405192 0.259383
3.636155 -1.407119 0.261735
3.620948 -1.409298 0.263942
3.606755 -1.411734 0.266004
3.597631 -1.415694 0.267339
3.586479 -1.418987 0.268964
3.575328 -1.422239 0.270589
3.566204 -1.426092 0.271923
3.557080 -1.429911 0.273257
3.548970 -1.434021 0.274446
3.539846 -1.437776 0.275780
3.531736 -1.441825 0.276969
3.523626 -1.445845 0.278157
3.515517 -1.449835 0.279345
3.509434 -1.454463 0.280243
3.503352 -1.459068 0.281141
3.500312 -1.464663 0.281603
3.498285 -1.470586 0.281919
3.498286 -1.477184 0.281946
3.497274 -1.483439 0.282117
3.497275 -1.490035 0.282143
3.497276 -1.496631 0.282170
3.497278 -1.503227 0.282196
3.498293 -1.510173 0.282077
3.499308 -1.517123 0.281958
3.499309 -1.523723 0.281984
3.501338 -1.531034 0.281720
3.501340 -1.537638 0.281746
3.503369 -1.544960 0.281482
3.504384 -1.551929 0.281364
3.506413 -1.559264 0.281100
3.508442 -1.566607 0.280836
3.509458 -1.573590 0.280717
3.510473 -1.580577 0.280598
3.511488 -1.587568 0.280479
3.511489 -1.594190 0.280506
3.512505 -1.601186 0.280387
3.511492 -1.607433 0.280558
3.510479 -1.613677 0.280730
3.510481 -1.620297 0.280756
3.509468 -1.626536 0.280927
3.508455 -1.632770 0.281099
3.507443 -1.639001 0.281270
3.506430 -1.645228 0.281441
3.505418 -1.651452 0.281613
3.503391 -1.657281 0.281929
3.502378 -1.663495 0.282100
3.501366 -1.669705 0.282272
3.500353 -1.675912 0.282443
3.498326 -1.681717 0.282759
3.497314 -1.687914 0.282930
3.496301 -1.694108 0.283101
3.496303 -1.700702 0.283128
3.494276 -1.706485 0.283444
3.493263 -1.712668 0.283615
3.491237 -1.718437 0.283931
3.489210 -1.724199 0.284247
3.487184 -1.729954 0.284563
3.486171 -1.736117 0.284734
3.484144 -1.741858 0.285050
3.482118 -1.747593 0.285366
3.480091 -1.753320 0.285682
3.478065 -1.759039 0.285998
3.476038 -1.764751 0.286314
3.474012 -1.770456 0.286629
3.472999 -1.776582 0.286800
3.470972 -1.782273 0.287116
3.468946 -1.787958 0.287432
3.466919 -1.793635 0.287747
3.464893 -1.799304 0.288063
3.462866 -1.804967 0.288379
3.460840 -1.810621 0.288694
3.457799 -1.815828 0.289155
3.455773 -1.821466 0.289470
3.452732 -1.826652 0.289931
3.450705 -1.832273 0.290246
3.447665 -1.837439 0.290706
3.444624 -1.842593 0.291166
3.440570 -1.847285 0.291771
